0.0891798  0.495847 -0.863819 0.815609 0.551524  0.17494
0.132641 0.503828 -0.85356 0.893406  0.38156 0.237146
0.413275 0.283867 -0.86523 0.849807 0.305324 0.429658
0.0366364 -0.115365  0.992647  0.994065  0.105467 0.0266642
 0.102359 -0.331209  0.937989  0.993244  0.112276 0.0293286
 0.135808  0.402164 -0.905439 0.930943 0.284899 0.228423
 0.525122  0.437202 -0.730138 0.741861 0.425849 0.517972
 0.207624  0.457994 -0.864369  0.85729   0.4305 0.282354
 0.110152  0.433576 -0.894359 0.777545 0.603365 0.177129
 0.159834  0.259962 -0.952299 0.742087 0.651894 0.156013
0.316832 0.351749 0.880846  0.821736  0.495222 -0.281967
0.0214137 0.190059 0.981539  0.744813  0.666762 -0.026097
0.0509474 0.433921 0.899509   0.776401   0.623093 -0.0946411
0.141069 0.459348 0.876983  0.868006  0.460955 -0.184627
0.0934593 0.189217 0.977477   0.922186    0.37478 -0.0954614
0.0871117 0.415757 0.905294  0.939294  0.311028 -0.144872
  0.15159 -0.348742 -0.924878  0.987952  0.143414 0.0581628
 0.285102 -0.101269 -0.953132 0.948736  0.14372 0.281504
 0.962033  0.272456 0.0161573 0.00232165 0.0886847 -0.996057
  0.963642   0.267039 -0.0091316 0.0124672 -0.284372  0.958633
 0.971458 -0.164475  0.170928  0.02743 0.304085 -0.95225
 0.979609  -0.17523 0.0982842 0.0176692 0.0990625 -0.994924
 0.961988   0.27085 0.0349304 0.00799525 -0.117618 -0.993027
  0.982111  -0.179183 -0.0578856 0.0155472 0.119591 0.992702
  0.97282 -0.177073  -0.14922 0.0306416 0.32656 0.94468
 0.964316  0.259376 0.0531015 0.0222142 -0.310439 -0.950334
 0.922105  0.376094 0.0909693  0.034986 -0.117169 -0.992496
0.901569 0.387571 0.192254 0.0953652 -0.310328 -0.945834
0.944014  0.25659 0.207363  0.138926 -0.334721  -0.93202
  0.97371   0.21221 0.0827992 0.0402243 -0.129472 -0.990767
  0.926414   0.375376 -0.0291478  0.0148253 -0.0831279   0.996429
  0.977693    0.20924 -0.0182968  0.0227654 -0.0882998   0.995834
 0.957744   0.24714 -0.147134 0.123034 -0.29545 0.947403
 0.914273  0.384959 -0.126142 0.0721131 -0.279637  0.957394
0.0770688  0.527319 -0.846165  0.603458  0.793806 0.0755679
0.0719281 0.522304 -0.84972  0.535955  0.841699 0.0655388
0.0383099 0.477217 -0.87795  0.500986  0.863459 0.0587573
0.0391409 0.475878 -0.87864  0.562485  0.824131 0.0664702
0.0854578  0.533453 -0.841501  0.683149  0.723702 0.0977873
0.0425171   0.47593 -0.878455  0.636904  0.766277 0.0846926
0.0565983  0.482666 -0.873974 0.723906 0.679501  0.11932
 0.10385   0.5437 -0.83283 0.773017 0.618813 0.139695
 0.138264  0.576545 -0.805282 0.741323 0.660858 0.117074
0.163182 0.588174  -0.7921 0.832435 0.527271 0.170402
0.211813 0.615107 -0.75946 0.896121 0.395092 0.202163
 0.184769  0.606386 -0.773406 0.811416 0.567577 0.139498
 0.124492  0.567226 -0.814098 0.655284 0.750154 0.088722
 0.169437  0.598374 -0.783097 0.720559 0.685416 0.104884
 0.158017  0.589814 -0.791928   0.63609  0.766618 0.0876719
 0.115153  0.558727 -0.821318  0.579956  0.811155 0.0753577
0.0163915  0.437607 -0.899017    0.34977   0.936801 0.00801132
0.0221326 -0.379648  0.924866   0.335214   0.942099 0.00903572
0.000196409 -0.415614  0.909541  0.448244  0.892616 0.0481093
0.0471099   0.48668 -0.872309  0.477399  0.876881 0.0562948
0.0421746  0.451989 -0.891026   0.368428   0.929635 0.00623227
0.0890341 0.525696   -0.846  0.513052  0.856047 0.0629405
 0.116371  0.544308 -0.830775  0.557783  0.827196 0.0679987
0.0401562 0.425408 -0.90411   0.390519    0.92059 0.00303455
0.0456601  0.422229 -0.905339   0.201512   0.979485 0.00133471
0.0440449  0.358458 -0.932506    0.206186    0.978513 -0.00050228
0.0341326  0.297406 -0.954141   0.117267     0.9931 -0.0004929
0.0322413  0.318992 -0.947209    0.116809    0.993154 0.000511259
0.0408834  0.498754 -0.865779  0.196254  0.980549 0.0027933
0.0492028  0.531088 -0.845887   0.115411   0.993317 0.00139579
0.0610822  0.694427 -0.716966   0.112716   0.993625 0.00220777
0.0317443  0.551232 -0.833748   0.190319   0.981714 0.00401974
  0.022546 -0.0648913   0.997638  0.324226  0.945917 0.0108991
 0.0161328 -0.0785288   0.996781  0.409947  0.911859 0.0213433
0.0741909 -0.213889  0.974037  0.423458  0.905494 0.0276201
0.0529776 -0.274988  0.959987   0.326923   0.945002 0.00957127
0.00306682  0.185225 -0.982691   0.180236   0.983605 0.00595674
0.017723 0.558463 -0.82934   0.184202   0.982875 0.00506887
0.0586181  0.740372 -0.669636   0.108758   0.994064 0.00295423
0.0273104  0.349465 -0.936551   0.105717   0.994391 0.00318559
0.0110713 0.344304 0.938793   0.180921   0.983474 0.00682763
0.0477373 0.574783 0.816912   0.106321   0.994327 0.00325486
0.0667005 0.804367 0.590377   0.110379   0.993883 0.00352758
0.0238625 0.634689 0.772399   0.186154   0.982489 0.00785132
0.0326598 -0.149796 -0.988177  0.324591  0.945772 0.0125037
 0.058164 -0.348416 -0.935534  0.328158  0.944521 0.0138642
0.0828898 -0.282686 -0.955624    0.424371    0.905489 0.000372435
0.0350629 -0.138322 -0.989766   0.410344   0.911903 0.00719867
0.0208802    0.1529 -0.988021  0.507015  0.861261 0.0341438
0.0190309  0.388678 -0.921177  0.529347   0.84661 0.0551707
0.0191009  0.392164 -0.919697  0.472281  0.880106 0.0486236
0.0200735  0.155463 -0.987638  0.453104  0.890948 0.0301332
0.0136162 -0.180489 -0.983483   0.507132   0.861861 0.00351479
0.0101782  -0.18951 -0.981826   0.453534   0.891232 0.00343362
0.00330574 -0.425622 -0.904895    0.47299   0.880936 -0.0152378
0.00598138 -0.418521 -0.908187   0.529308   0.848208 -0.0194066
 0.016331 -0.171935 -0.984973   0.573433   0.819248 0.00262727
0.00638923 -0.412089 -0.911121   0.598407    0.80068 -0.0286487
0.00633247 0.414795 0.909893   0.681644   0.730059 -0.0487341
0.0121881 -0.169817   -0.9854     0.65346    0.756958 -0.00195218
0.0307441   0.16176 -0.986351  0.573958  0.817601 0.0458309
0.0618928   0.18934 -0.979959  0.654554  0.752379 0.0740643
0.0489711  0.403574 -0.913636 0.684728 0.720798 0.107692
0.0247173  0.389641 -0.920635  0.599935  0.796791 0.0721247
0.0477918 -0.450342 -0.891576   0.376232   -0.92632 -0.0195072
 0.103216 -0.538714 -0.836142  0.523177 -0.851485  0.035481
  0.10491 -0.551568 -0.827506  0.562137  -0.82634 0.0341201
0.0317405 -0.442792 -0.896062   0.396273  -0.917836 -0.0233451
0.0479746 -0.392039 -0.918697    0.20668  -0.978328 -0.0125833
 0.047839 -0.439542 -0.896947   0.211083  -0.977369 -0.0139025
0.0464868  -0.44084 -0.896381     0.12103   -0.992623 -0.00709514
0.0367188 -0.326157 -0.944602     0.12028   -0.992718 -0.00663203
0.0424731 -0.523903 -0.850718  0.201762 -0.979367 -0.011466
0.0526487 -0.561473 -0.825818    0.118886    -0.99289 -0.00587763
0.0635951   -0.7055 -0.705851    0.115891   -0.993248 -0.00518739
0.0330188 -0.562156 -0.826372   0.195689  -0.980611 -0.0104083
0.0151304 -0.448766 -0.893521   0.358565  -0.933335 -0.0178212
0.0245864 0.383163 0.923353   0.345198  -0.938378 -0.0168632
0.00237339 -0.427365 -0.904076  0.462052 -0.886564  0.022638
0.0365849 -0.478036 -0.877578  0.490652 -0.870986 0.0253933
  0.12098 -0.553806  -0.82381  0.663464 -0.746777 0.0462544
 0.156192 -0.599344 -0.785106  0.722607 -0.688585  0.060744
  0.14373 -0.591373 -0.793486 0.636468 -0.77056 0.033855
 0.108966 -0.543627 -0.832224  0.586808   -0.8093 0.0262572
0.0715209 -0.524632  -0.84832  0.617437 -0.785785 0.0362437
0.0686442 -0.522263 -0.850017  0.548167 -0.836083 0.0218939
0.0396137 -0.484403 -0.873948  0.514704 -0.857138  0.019836
0.0359427 -0.477642 -0.877819  0.578703 -0.814965 0.0305653
0.0773956 -0.528469 -0.845417  0.697286 -0.714442 0.0580052
0.0381154 -0.476428 -0.878387  0.654081  -0.75489 0.0481588
0.0486046 -0.479795 -0.876033  0.739466   -0.6693 0.0723092
0.0895363 -0.534456  -0.84044  0.784427 -0.614217 0.0860953
 0.136075 -0.563717 -0.814682  0.749181 -0.657831 0.0773697
 0.157044 -0.572751 -0.804545  0.837583 -0.533568  0.117306
 0.210726 -0.617893 -0.757497 0.899623  -0.4054 0.162266
  0.17862 -0.609669 -0.772268  0.814803 -0.570095  0.105299
 0.221663   -0.4071 -0.886078   0.806125  -0.591308 -0.0227539
 0.206735 -0.392116 -0.896385   0.720846   -0.69266 -0.0245839
 0.162265  -0.60759 -0.777499   0.69245 -0.721175 0.0204876
 0.159007 -0.609182 -0.776926  0.782095 -0.621836 0.0405983
 0.238277 -0.422275  -0.87459   0.889901   -0.45565 -0.0214274
 0.166921 -0.615107 -0.770572  0.871891 -0.484958 0.0679829
 0.189256 -0.624703 -0.757581  0.946126 -0.308201 0.0992836
 0.264775  -0.44079 -0.857671   0.957688  -0.287226 -0.0183067
  0.296259 -0.0111965  -0.955042  0.886144 -0.444712 -0.130306
  0.333073 -0.0373389  -0.942161  0.949467 -0.280309 -0.141205
  0.342252 -0.0998626  -0.934286  0.950258 -0.294659 -0.100926
  0.294484 -0.0758629  -0.952641   0.87664 -0.467919 -0.112047
 0.251028 0.0316603 -0.967462  0.805868 -0.581381 -0.112128
 0.250538 -0.042642 -0.967167  0.788161 -0.606848 -0.102656
  0.204897 0.00464951  -0.978773   0.693265  -0.715383 -0.0872421
 0.191247 0.0953898 -0.976896    0.71869  -0.689203 -0.0921088
0.0812311  -0.23745 -0.967997   0.415796  -0.908748 -0.0359217
0.000974681 0.464143  0.88576    0.41046  -0.911397 -0.0296403
0.0201359 0.422856 0.905973  0.603854 -0.797028  -0.01032
 0.100333 -0.272463 -0.956921   0.634404  -0.771955 -0.0402071
 0.168846  0.258418 -0.951163   0.416919  -0.907952 -0.0424462
  0.320292 -0.0902781  -0.943007   0.626894  -0.777027 -0.0568566
  0.10573  0.139167 -0.984608  0.600313 -0.792922 -0.104397
 0.128007  0.113794 -0.985223   0.408265   -0.91152 -0.0495088
0.00942064 -0.759877  0.649998   0.213756  -0.976647 -0.0216484
0.0131926 -0.528721  0.848693   0.201761   -0.97916 -0.0231907
0.0718863 -0.815485  0.574296   0.112502  -0.993563 -0.0132572
0.0695392 -0.868582  0.490642   0.119927  -0.992699 -0.0129104
 0.0147328 0.00651298   -0.99987   0.221479  -0.974982 -0.0188795
0.0248915 -0.272272  0.961898   0.124944  -0.992113 -0.0100184
0.0495844 -0.589742 -0.806068    0.123615     -0.9923 -0.00772422
0.0388237 -0.606297  -0.79429   0.217804  -0.975862 -0.0159471
 0.260701 -0.575284 -0.775295  0.973655 0.0222976  0.226932
 0.317619 -0.556749  -0.76756  0.94288 0.229242 0.241713
 0.365936 -0.587034 -0.722137 0.877262 0.394364 0.273656
 0.341238 -0.606167 -0.718413 0.933857 0.219424 0.282425
 0.231971 -0.581367 -0.779873  0.960827 -0.159242  0.226832
 0.315262 -0.615244 -0.722554  0.952178 0.0521608  0.301058
 0.255534 -0.621302 -0.740733  0.953918 -0.191238  0.231231
 0.187784 -0.579747 -0.792862  0.915133 -0.366584  0.167773
 0.140904 -0.545046 -0.826481  0.939379 -0.300993  0.164228
 0.110047 -0.540946 -0.833827  0.870253 -0.477405  0.121429
0.0691772 -0.485162 -0.871684  0.828886 -0.549597  0.104361
0.0966921 -0.486783 -0.868155  0.909648 -0.390226  0.142354
  0.15537 -0.541357 -0.826313  0.978314 -0.125731  0.164603
0.0820822 -0.472302 -0.877606   0.96602 -0.225028  0.127156
0.00505767 0.451433  0.89229  0.996887 -0.044461 0.0651156
 0.173023 -0.532787 -0.828372  0.984176 0.0690967  0.163168
  0.85635  -0.35344 -0.376489 0.170871 0.670137 0.722302
 0.723568 -0.460663 -0.514041 0.212619 0.739649 0.638524
  0.80714 -0.248571 -0.535478 0.266312 0.713976 0.647547
 0.881654 -0.167439 -0.441192   0.2608 0.644454 0.718793
 0.934075 -0.265367 -0.238924 0.128401 0.574005 0.808722
  0.970794 -0.0238484  -0.238725 0.194283 0.560548  0.80501
  0.98958  0.139688 0.0349054 0.0436132 0.446285 0.893828
 0.966541  -0.21874 -0.133981 0.0735766 0.447065  0.89147
  0.87463 -0.374032 -0.308418 0.235199 0.571805 0.785952
 0.903661 -0.343616 -0.255586 0.170107 0.441804 0.880836
 0.889891 -0.285684 -0.355639 0.331027 0.442697 0.833331
 0.832206 -0.367369   -0.4153 0.437792 0.554946 0.707371
 0.821239 -0.431403  -0.37344 0.264337 0.675375 0.688473
 0.829931 -0.387068 -0.401738 0.363802 0.686548 0.629524
 0.831174 -0.393513 -0.392806 0.286156 0.792038  0.53925
 0.744326 -0.502479 -0.439879 0.282443 0.760345 0.584895
 0.753528 -0.233087 -0.614708 0.367464 0.877117 0.309251
 0.467083 -0.509147 -0.722913 0.652595 0.702957 0.282792
 0.589404 -0.467535 -0.658797 0.452724 0.740718 0.496365
 0.710026 -0.426581  -0.56026 0.329724 0.787837 0.520188
 0.898237  0.336334 -0.282931 0.239143 0.934369 0.264133
 0.791298 -0.429382 -0.435292 0.430733 0.793057 0.430732
 0.879773 -0.314593 -0.356413  0.41595 0.820771 0.391561
 0.891822  0.421208 -0.165036 0.156231  0.95307 0.259325
0.522679 0.817248 -0.24272  0.246069  0.969149 0.0141667
 0.462266  0.881028 -0.100492  0.103816  0.990896 0.0857205
 0.285218 -0.923853 -0.255238 0.0263783 -0.997099 -0.071394
  0.61831 -0.599144 -0.508645  0.033447  0.997047 0.0691303
 0.744513  0.196593 -0.638006 0.232886  0.93723 0.259545
 0.608394 -0.436595 -0.662754 0.0044405 -0.954026  -0.29969
  0.600382 -0.0332073  -0.799024 0.100003 0.752521 0.650931
  0.600871 -0.0644656  -0.796743 0.566266 0.740641 0.361652
 0.470006 -0.439338 -0.765556  0.957258  0.288656 0.0183111
 0.338315 -0.627139 -0.701598 0.946889 0.280579 0.157085
 0.368293 -0.615865 -0.696471 0.889097 0.428637 0.160552
 0.580224 -0.389964  -0.71503  0.892633  0.446688 0.0606315
  0.515355 -0.0418755  -0.855953   0.949515   0.304652 -0.0748878
   0.607877 -0.00184964   -0.794029   0.871796   0.489511 -0.0187168
  0.544589 -0.0875788  -0.834118 0.733293 0.661944 0.155279
 0.503254 -0.102867 -0.857994  0.894926  0.434889 0.0998957
 0.426479 -0.060944 -0.902442  0.987747  0.105342 -0.115146
 0.453738 -0.111788 -0.884096  0.984396  0.172672 0.0338908
 0.395585 -0.112772 -0.911479   0.995049 -0.0820523 -0.0560805
  0.373628 -0.0540909     -0.926   0.986011 -0.0938238  -0.137764
 0.359965 -0.465104 -0.808766   0.994283    0.10656 0.00680687
 0.302989 -0.457312   -0.8361    0.995495  -0.0943392 -0.00948366
 0.224486 -0.633124 -0.740784    0.98603 -0.0993082   0.133725
 0.275744 -0.635296 -0.721363 0.979076 0.117387 0.166227
   0.99758  0.0196153 -0.0667028 0.00862711 0.757438 0.652851
 0.993944  0.106525 0.0269934 0.0505265 -0.747629 -0.662192
0.976529 0.189893 0.101646 0.0484249 -0.819321 -0.571286
  0.997614  0.0603894 -0.0334699 0.00703463 0.830846 0.556459
  0.982574 -0.0779412  -0.168739 0.0825618 0.756794 0.648418
  0.986264 -0.0562795  -0.155291 0.0680726 0.832868 0.549269
 0.940467 -0.204344 -0.271598 0.146636 0.824435  0.54663
 0.936991 -0.212553 -0.277252 0.182336 0.740812 0.646491
  0.988501 -0.0518388   -0.14205 0.0760854 0.650889  0.75535
 0.954204  -0.17317 -0.243939 0.184393   0.6341 0.750944
 0.980259 -0.107532 -0.165917 0.105745 0.500097 0.859489
  0.995703 -0.0132889 -0.0916405 0.0347536 0.509215 0.859938
  0.997787  0.0251889 -0.0615387 0.00010992 0.650928 0.759139
 0.998373 0.0400678 -0.040559 0.0134462 -0.506914 -0.861892
   0.996498    0.083608 -0.00126849 0.0505656 -0.496053 -0.866818
   0.996781   0.0801433 -0.00210058 0.0552752 -0.640235 -0.766188
  0.985588 -0.0707891   0.153639 0.0158076 -0.714462 -0.699495
0.873616 0.199363 0.443902 0.0289437 -0.771858 -0.635136
0.936465 0.246962 0.249084 0.0683554 -0.800761 -0.595071
  0.98953   0.10432 0.0997417 0.0615693 -0.734007 -0.676345
  0.975544  -0.214137 -0.0495893 0.00891366 -0.611425 -0.791252
  0.999369  0.0344951 0.00850158 0.0548489 -0.627241 -0.776892
  0.999339  0.0322689 -0.0167438 0.0416223 -0.484411  -0.87385
 0.966995 -0.229698 -0.110269 0.00443512 -0.473152  -0.88097
 0.619628 -0.770293 -0.150699 0.0348546 0.586904 0.808906
 0.584891 -0.789673 -0.185253 0.0198488 0.464868 0.885157
  0.0763452    -0.99705 -0.00794067 0.0334981 0.364838 0.930468
 0.0750844  -0.997169 0.00398182 0.0538715  0.40281 0.913697
  0.679614  -0.732762 -0.0344159 0.0639846 0.666887 0.742406
 0.0664202  -0.997779 0.00494494 0.084029 0.248279 0.965037
 0.045929 -0.996129 -0.074946 0.110135 0.354354 0.928603
  0.609235  -0.788733 -0.0820535 0.0745408 0.701064 0.709191
 0.551699 -0.833814 0.0195456  0.201458 -0.946243 -0.253059
  0.589744   -0.80361 -0.0800867 0.248186 -0.94122 -0.22915
 0.981762 0.0496824  0.183509  0.144475 -0.855376 -0.497452
 0.929623 -0.103955  0.353546 0.0867565 -0.832669 -0.546933
0.523221 -0.84473 0.112569 0.0761241  -0.89859 -0.432136
  0.526971  -0.845076 -0.0902694 0.0689108 0.735924 0.673549
0.0418509 -0.980643 -0.191278 0.130597 0.738199 0.661821
 0.122943 -0.971212  -0.20404  0.642443 -0.153725  0.750757
 0.585835 -0.331515  0.739524  0.196413 -0.965914  -0.16862
0.0367567 -0.855295 -0.516837  0.443078 -0.894874 0.0536907
0.0465445 0.464432 0.884385   0.424478  -0.901968 -0.0791919
0.0112795 -0.726701 -0.686862 0.184669 -0.97079 -0.15318
 0.486668 -0.853439  0.186537  0.168101 -0.974677  -0.14747
 0.426541 -0.203825  0.881202  0.155073 -0.978992 -0.132388
0.297677 0.739635 0.603596 0.118296 -0.98547 -0.12188
  0.406096  -0.913744 -0.0125975  0.141507 -0.979462 -0.143633
  0.997359  0.0114142 -0.0717205 0.0222615 -0.958834 -0.283095
  0.997333 -0.0197312 -0.0702632 0.0245767 0.883516 0.467755
 0.998998 0.0318698 0.0314209 0.0682066 -0.872906 -0.483097
  0.983592  -0.179638 -0.0166119  0.133946 -0.951631  -0.27651
  0.42367  0.902983 0.0715964  0.190272 -0.969625 -0.153703
0.368491 0.917345 0.150641  0.136077 -0.980018 -0.145078
0.0611466 0.979867 0.190055  0.109795 -0.987061 -0.116854
0.252572 0.960222 0.119085   0.10688 -0.989028 -0.101983
 0.583645 -0.792321 -0.177723  0.186168 -0.970167 -0.155301
  0.53413 -0.830697 -0.156997  0.0808275  -0.992349 -0.0933246
 0.391813 -0.896221 -0.208014  0.0645892   -0.99352 -0.0935205
  0.43227 -0.875522 -0.215878  0.130217 -0.978642 -0.159067
  0.991459   0.103497 -0.0793581 0.0250749 -0.958228 -0.284904
 0.975599  0.178953 -0.127212 0.0632291 0.959395 0.274887
   0.97864 -0.0558403  -0.197854 0.149571 0.879555 0.451677
 0.993457 0.0247106 -0.111499 0.0550326 0.885585 0.461206
 0.206301 -0.968309 -0.140776 0.289347 0.647398 0.705092
    0.3786  -0.920751 -0.0942267 0.135117 0.832058 0.537981
 0.603774 -0.787599  0.123065 0.0404726 -0.959995 -0.277077
  0.268516  -0.961923 -0.0510294 0.0384238 0.949631 0.311005
 0.130402 -0.971099 -0.199907  0.377288 -0.657106  0.652583
  0.184069   -0.98015 -0.0736564 0.0677402 0.930199  0.36075
  0.088112  -0.994099 -0.0632753 0.151825 0.564712 0.811202
0.0439098 -0.917303 -0.395761  0.102973 -0.993494 0.0486366
0.0662494 -0.913885 -0.400532  0.202922 -0.974755  0.093146
0.000644477 0.712938 0.701227  0.0977219  -0.995185 0.00758779
0.00203431 0.609008 0.793161  0.0977161  -0.995194 0.00632882
0.0579214 -0.852382 -0.519701  0.174825 -0.983203 0.0524304
 0.153217 -0.945612 -0.286953  0.429212 -0.784487  0.447612
0.0585482  -0.79296 -0.606454  0.295007 -0.952115 0.0803036
0.0108147 0.659613 0.751528   0.423291  -0.905952 0.00871546
0.0537417  -0.84287 -0.535426  0.491646 -0.863459  0.112796
 0.612137 -0.790549 0.0179054 0.00618149 0.888095 0.459619
 0.662223 -0.747685 0.0492805 0.0145339   -0.9523 -0.304816
 0.659088 -0.748607 0.0720522 0.0251145 -0.954629 -0.296735
   0.556371   -0.830903 -0.00714854 0.0188541 0.887494 0.460434
  0.581466  -0.813383 -0.0174656 0.0257624 0.790465 0.611965
  0.487695   -0.86899 -0.0837293 0.0871086 0.750594 0.654997
  0.35594 -0.874185 -0.330313  0.567365 -0.214272    0.7951
  0.575373  -0.817419 -0.0277756 0.031447 0.639405 0.768227
 0.659352 -0.751153 0.0319988 0.00238417 0.797574 0.603216
 0.657376  -0.75291 0.0313563 0.0109553 -0.666502 -0.745423
 0.735458  -0.67385 0.0708989 0.0320292 -0.669891 -0.741768
 0.732477  -0.67822 0.0591197 0.00630778 -0.795895 -0.605402
 0.662432 -0.748324 0.0345597 0.00367278 0.885595 0.464443
 0.720886 -0.691732 0.0427698 0.00539517 0.882777  0.46976
 0.717236 -0.695937 0.0352612 0.00143978 0.950027 0.312164
 0.680329 -0.731753 0.0411081 0.00614262 -0.950941 -0.309313
0.0312726 -0.994234 -0.102569  0.758966 -0.646607 0.0766138
0.0426499 -0.994121 -0.099523  0.696134  -0.71411 0.0737926
  0.62334 -0.780012 0.0550277 0.00953696 -0.985593 -0.168865
 0.632536 -0.773456 0.0407835 0.00487785 -0.985387 -0.170258
0.0263416 -0.994252 -0.103775  0.782853 -0.618746 0.0655372
   0.6418 -0.766436 0.0258511 0.00211844 0.985296 0.170842
 0.671868  -0.74051 0.0154406 0.00764141 0.985391 0.170139
0.0236136 -0.994283  -0.10413  0.822923 -0.565282 0.0570361
0.0624209 -0.946044 -0.317968  0.728908 -0.683086 0.0456822
0.0630493 -0.946825 -0.315511  0.793529  -0.60702 0.0428803
 0.177636 -0.569374 -0.802657  0.806286 -0.589072  0.053823
 0.197991 -0.571079  -0.79666  0.742957 -0.666697 0.0594093
0.0607244  -0.94536 -0.320325  0.672079 -0.738877 0.0486833
 0.211271 -0.571133 -0.793203  0.684232 -0.726543 0.0629453
 0.211739 -0.562314 -0.799356  0.632787 -0.771753 0.0630776
0.0651337 -0.945673 -0.318528  0.628375  -0.77602 0.0541989
  0.124638  -0.988955 -0.0802034 0.941724 0.129381 0.310509
 0.296228 -0.954769 -0.025809 0.0017844 -0.985268  -0.17101
 0.436522 -0.899596 0.0132661 0.0108015 -0.985867 -0.167179
0.0654761 -0.993405 -0.094127    0.44105  -0.897434 0.00932291
 0.338703 -0.931005 -0.136053  0.597846 -0.797199 0.0839889
 0.153416 -0.951425 -0.266935  0.615879 -0.784767 0.0695279
 0.125198 -0.463742  -0.87708  0.597547 -0.799514 0.0609461
0.0851945 0.215415 0.972799  0.578352 -0.813342 0.0631155
 0.296493 -0.942756 -0.152654  0.524259 -0.847959 0.0782226
 0.204015 -0.629812 -0.749477  0.562338 -0.824043 0.0687659
0.0891683 -0.574865 -0.813375  0.527095 -0.847502 0.0625388
 0.221964 -0.943515  -0.24599    0.4643 -0.884011 0.0543178
0.0883422 -0.990482 -0.105548  0.483415 -0.868256  0.111545
 0.106535 -0.988867  -0.10389  0.353091 -0.929848  0.103488
0.0713908 -0.992129 -0.102873  0.449962 -0.598764  0.662582
  0.194012  -0.979496 -0.0542901 0.0254214 0.980076 0.196988
  0.91204 -0.405717 0.0598071 0.000657698  0.88284 0.469673
 0.980874 -0.189509 0.0444215 0.00362857 -0.883057 -0.469251
 0.965821 -0.258475 0.0195064 0.00491544 0.951936 0.306257
 0.881067 -0.472219 0.0270182 0.00819453 0.951555 0.307371
 0.843343 -0.535895 0.0398693 0.0127719 0.880585 0.473716
 0.826848  -0.56182 0.0260866 0.0107579 0.950569 0.310326
 0.766956 -0.641061 0.0286416 0.00797028 0.949773 0.312837
 0.780902 -0.623207 0.0424981 0.00996882 0.880552 0.473845
 0.870809 -0.483973 0.0863852 0.0127987 -0.788816 -0.614497
 0.803096 -0.591243 0.0739506 0.00961346 -0.792384 -0.609947
 0.810639 -0.577255 0.0981895 0.0442227 -0.664244 -0.746207
 0.880235 -0.458583  0.122013 0.0549579 -0.654622 -0.753956
 0.934368 -0.340196  0.105936 0.0236655  -0.78453 -0.619639
 0.940954 -0.304672  0.147583 0.0712873 -0.642316 -0.763117
 0.987016 -0.114333  0.112818 0.0627774 -0.623689 -0.779148
 0.986633  -0.14493 0.0745051 0.0222943 -0.777025 -0.629075
  0.95189  0.305235 -0.027158 0.00381137 -0.883223 -0.468937
   0.939343    0.342837 -0.00982064 0.00201731 -0.952673 -0.303992
    0.997347    0.0727901 -0.000621744 0.00287715 0.952363 0.304952
   0.998078   0.0618853 -0.00337218 0.000452732 -0.883123 -0.469141
    0.9623   0.267003 -0.0518532 0.00231858 0.779404 0.626517
   0.997548   0.0699863 0.000254048 0.0077531 -0.774352 -0.632707
   0.998111   0.0606329 -0.00993367 0.000545631 -0.616414 -0.787422
  0.967476   0.238822 -0.0833938 0.0342736 0.629276 0.776425
  0.906331   0.419658 -0.0495207 0.00134013 -0.783959 -0.620811
  0.914144   0.397458 -0.0798028 0.0314131 0.641885 0.766158
  0.847289    0.52648 -0.0701435 0.0297904  0.65381 0.756072
  0.840707   0.539271 -0.0489703 0.00114203 0.788809 0.614637
  0.887758   0.460055 -0.0153418 0.0145991 -0.881676 -0.471629
  0.823529   0.566771 -0.0238647 0.0113938 -0.881712  -0.47165
  0.817202   0.576119 -0.0163586 0.0045877 -0.951517 -0.307561
  0.88303  0.469177 -0.011422 0.00597699 -0.952138 -0.305612
0.014897 0.994603 0.102676   0.987301   0.158039 -0.0161249
0.00314031 0.994702 0.102752   0.999341  0.0362277 0.00215549
  0.994736   0.102159 0.00799968 0.00064757 0.987326 0.158703
 0.888908  0.457839 0.0150301 0.00509245 -0.987125 -0.159872
0.0174562  0.99455 0.102792   0.961194   0.274477 -0.0277097
  0.841371   0.540398 0.00808307 0.0072299 -0.986774 -0.161939
    0.777456     0.628938 -0.000179815 0.00696331 -0.986445 -0.163946
0.0210007 0.994505 0.102557   0.925853   0.375695 -0.0406264
0.030746 0.948512 0.315246   0.928809   0.370352 -0.0123496
0.0465531 0.948253 0.314086   0.869349   0.493827 -0.0191588
0.138204 0.575721 0.805881   0.878487   0.476891 -0.0288985
0.100427 0.570791 0.814931   0.934627   0.355018 -0.0208645
0.00883745 0.948085 0.317895   0.972453   0.233055 -0.0045318
0.0392524 0.561909 0.826267   0.974708   0.223199 -0.0112434
0.00200128 0.557036 0.830486   0.997406  0.0719251 0.00282316
0.0052036  -0.94735 -0.320158   0.997085  0.0760355 0.00637698
0.0195527 -0.994487 -0.103019  0.960091 -0.277845 0.0320697
    0.79067   -0.612163 -0.00992251 0.0119904 0.986603 0.162698
   0.920473   -0.390715 -0.00848222 0.00830849  0.98711 0.159827
0.00949801 -0.994655 -0.102813  0.989949 -0.140249 0.0182181
0.0250039 -0.947871 -0.317672  0.967202 -0.252442 0.0281763
0.00954557 -0.947308 -0.320183   0.994977 -0.0984498  0.0181461
0.0140304 -0.555669 -0.831285   0.995434 -0.0935266  0.0190802
0.0565135 -0.558823 -0.827359  0.969743 -0.241986 0.0322594
0.0455781 -0.948026 -0.314911  0.921302 -0.387303 0.0346164
 0.117041  -0.56587 -0.816145  0.927352 -0.371953 0.0408538
 0.152568  -0.56825 -0.808588  0.870399 -0.490048 0.0475157
0.0596659 -0.947546    -0.314   0.86095 -0.507147 0.0395704
 0.020034   -0.9944 -0.103766   0.9208 -0.38792 0.040554
0.0219725 -0.994331 -0.104038  0.876964  -0.47789 0.0505522
  0.714157   -0.69995 0.00700605 0.0112226 0.985661 0.168364
    0.764709    -0.644376 -0.000844248 0.0124342 0.986093  0.16573
   0.64784   0.761674 -0.0125205 0.00362877 -0.890996 -0.453997
  0.587628   0.809076 0.00943852 0.0139279 -0.892244 -0.451338
   0.68929   0.721757 -0.0628252 0.0226702 0.956284 0.291559
  0.696733   0.716129 -0.0415079 0.0143938 0.954154 0.298971
  0.703502   0.710256 -0.0249176 0.00286451  -0.88745 -0.460895
   0.72238   0.690715 -0.0328615 0.00740801 0.952718 0.303764
  0.764393   0.644261 -0.0251153 0.000745084 0.951758 0.306848
  0.762302   0.646616 -0.0279781 0.0062882 -0.884012 -0.467423
 0.697427  0.716385 -0.019709 0.00162689 -0.798492 -0.602003
 0.771329  0.635102 -0.041199 0.00238108  0.79422 0.607626
  0.772828   0.632669 -0.0496573 0.0234345 0.662462 0.748729
 0.693455  0.720316 -0.016305 0.00894997   0.6642 0.747501
 0.614279  0.788723 0.0240287 0.0193801 -0.795877 -0.605148
 0.608018  0.793232 0.0331212 0.0224639 -0.649066   -0.7604
0.431869 0.869036 0.241382  0.368003 -0.250498 -0.895447
0.523951 0.848631 0.072804 0.0575846 -0.775001 -0.629331
0.210273 0.967885 0.137783  0.259494 -0.705156 -0.659862
 0.268749  0.961656 0.0546944 0.0392234 -0.952109 -0.303233
  0.604926   0.790089 -0.0991155 0.032461 0.960663 0.275814
 0.420521  0.904822 0.0667744 0.0904883 -0.863624  -0.49595
0.155217 0.94636 0.28339  0.450016  0.756925 -0.473868
0.0235393 0.826682 0.562177   0.487661   0.870891 -0.0611246
0.0341481 -0.641409 -0.766439  0.433401  0.900975 0.0201857
0.0528252  0.79231 0.607828   0.300719   0.951124 -0.0702208
0.0646603 0.915593 0.396874   0.205133   0.974791 -0.0877689
0.0580996 0.859188 0.508351   0.176854    0.98298 -0.0497255
0.00464373 0.654319 0.756205   0.0971602    0.995238 -0.00781347
0.00755739 0.756498 0.653953   0.0972001    0.995227 -0.00873199
0.130721  0.97137 0.198376  0.390393  0.625236 -0.675776
0.0478897 0.928745 0.367613   0.103128   0.993434 -0.0495253
0.0887649  0.993774 0.0673356  0.177056 -0.472539 -0.863341
0.184662 0.979825 0.076441 0.0667875 -0.934799 -0.348842
 0.128127  0.988604 0.0790328  0.840567 -0.457965 -0.289337
0.0650183  0.993578 0.0926014    0.468249    0.883567 -0.00730089
  0.439508   0.898233 -0.0032758 0.00797307 0.986603 0.162945
 0.294454  0.955143 0.0316152 1.97025e-05 -0.986021 -0.166621
0.085975 0.990839 0.104149   0.490288   0.866192 -0.0965908
 0.200751   0.97813 0.0544151 0.0225665 -0.981825  -0.18844
 0.074338  0.992455 0.0974987  0.527046  0.182237 -0.830068
0.104185 0.989343 0.101719   0.354806   0.930223 -0.0937935
0.290535 0.943819 0.157463   0.528457   0.846435 -0.0654276
0.216761 0.945475 0.243089   0.466663   0.883395 -0.0428677
0.0906216 0.619806 0.779505   0.530771   0.845947 -0.0515374
0.190122  0.65506 0.731266   0.567246   0.821525 -0.0576975
0.328357 0.933327 0.145196   0.601806   0.795611 -0.0695121
 0.151166  -0.19114 -0.969853   0.582715   0.810968 -0.0526643
0.0835755 0.463331 0.882236   0.601354   0.797468 -0.0491742
0.122931 0.952781 0.277663   0.619826   0.782793 -0.0552334
0.0314269 0.994463 0.100279   0.802879   0.591975 -0.0703612
  0.675353   0.736608 -0.0361602 0.0063056 0.986303 0.164824
  0.654805   0.754224 -0.0487453 0.00961283 0.986474 0.163636
0.0424813  0.994331 0.0974735   0.740018   0.668952 -0.0698258
0.0479272 0.946549 0.318979   0.678595   0.733739 -0.0337138
0.0470442 0.946521 0.319194  0.633427  0.772761 -0.040137
0.189112 0.574475 0.796376   0.637555   0.768775 -0.0500958
0.194458 0.584852 0.787486   0.690438   0.721747 -0.0487529
0.0497405 0.947066 0.317163  0.736449  0.675876 -0.028878
0.182554 0.582864 0.791798   0.750506   0.659407 -0.0438552
0.163536  0.57922 0.798599   0.814642     0.5788 -0.0367402
0.0503086 0.947694 0.315191   0.801851   0.597034 -0.0241877
0.0264518 0.994476 0.101576   0.833378   0.549542 -0.0590289
0.023589 0.994483 0.102208  0.878018  0.476024 -0.049848
  0.728041    0.68546 -0.0100363 0.00390886 -0.986245 -0.165242
  0.693921   0.719725 -0.0216703 0.000814217 0.986211 0.165492
 0.986895 0.0014808 -0.161359 0.0284671 0.752233 0.658282
 0.986519  -0.11586 -0.115569 0.0698052 0.769466 0.634862
 0.937261 -0.251615 -0.241312 0.0776418 0.829733 0.552734
 0.873025 -0.255922 -0.415127 0.0444146 0.805134 0.591428
 0.754106   0.65628 0.0249154 0.0573165 -0.711704 -0.700138
 0.678372   0.73272 0.0541567 0.0691378  -0.74276 -0.665978
0.0418997  0.997282 0.0606045   0.119837 -0.0905696  -0.988654
  0.0636989    0.997968 -0.00172964 0.0823514 -0.194643 -0.977411
0.685925 0.710804 0.155768 0.0251303 -0.641173 -0.766985
  0.0735483    0.997285 -0.00354498  0.045139 -0.458596 -0.887498
 0.0747302   0.997161 0.00925726 0.0249236 -0.421249 -0.906603
0.652283 0.733332 0.191705 0.00915608 -0.529058 -0.848536
 0.986726  0.159013 0.0329622 0.019603   0.6624 0.748894
 0.978579  0.181482 0.0972021 0.0130254 0.536388 0.843871
  0.999832 -0.0135757  0.0123273 0.0419962 0.546306 0.836532
  0.999114 -0.0333794 -0.0256264 0.0603854 0.676475 0.733986
 0.997017 0.0441759 0.0632924 0.0255061 -0.788262 -0.614812
  0.999425 0.00376245   0.033704 0.0180668 -0.853638 -0.520554
 0.982581 -0.156306 -0.100513 0.0450435 0.845685 0.531778
  0.996472 -0.0752864 -0.0370882 0.043102 0.782084  0.62168
 0.996008 0.0529499 0.0718612 0.0297502 -0.692465 -0.720838
  0.999423 -0.0339675 0.00064031  0.03904 0.687875 0.724779
  0.999635 -0.0218864  0.0158511 0.0284173 0.555198 0.831232
 0.996704 0.0477272 0.0655996 0.0208396 -0.557913 -0.829637
0.980106 0.132909   0.1474 0.0992909 -0.685239 -0.721519
0.988917 0.100033 0.109712 0.0630688 -0.551573 -0.831739
 0.96812 0.183204 0.170822  0.121177 -0.534958 -0.836144
0.940758 0.243158 0.236324  0.191343 -0.662695 -0.724032
0.975525  0.14851 0.162162 0.0962218 -0.783402 -0.614022
0.924038 0.277034 0.263449  0.186973 -0.764066 -0.617449
0.927485 0.269055  0.25958  0.154813   -0.8409 -0.518576
0.980469 0.126925 0.150233 0.0791339 -0.852259   -0.5171
 0.997778 0.0292813 0.0598541 0.0119637 0.962898   0.2696
  0.981282   0.192535 0.00391639 0.130511 0.956293 0.261668
  0.999104 -0.0108811 -0.0408964 0.061922 0.892439 0.446899
 0.995792 0.0681783 0.0612324 0.0351075   -0.8992 -0.436128
 0.995861 -0.058206 0.0698111 0.0063743 0.962494 0.271229
 0.994317 0.0280771  0.102693 0.0665735 -0.899098 -0.432655
0.976668 0.107167 0.186107   0.15439 -0.890357 -0.428285
 0.981816 -0.153028  0.112335 0.0701221 -0.961911 -0.264214
0.552556  0.81689 0.165448 0.182151 0.972005 0.148415
0.431419 0.878481 0.205301  0.12328 0.980623 0.152251
0.364212 0.911403 0.191558 0.0630321  0.993869 0.0908406
0.491868 0.858372 0.145822 0.0788079  0.992838 0.0897837
   0.44887  -0.890724 -0.0716034  0.18989 0.970774 0.146763
 0.269732 -0.955706 -0.117776  0.105975  0.989538 0.0978977
 0.063223 -0.980339  -0.18692 0.109785 0.987616 0.112079
  0.35051 -0.924207 -0.151605 0.136695 0.980811  0.13901
  0.556563   0.830697 -0.0134097 0.20851 0.94901 0.23644
 0.936867 0.0343079 -0.347997 0.100083 0.858093 0.503647
  0.979466 -0.0703574  -0.188933 0.148863 0.876787 0.457258
 0.590072  0.803988 0.0736074 0.254552 0.943094 0.213956
0.504755 0.843613 -0.18314 0.169767 0.975371 0.140822
    0.429947     0.902854 -0.000503262 0.142921 0.980173 0.137241
 0.259293 -0.796457 -0.546281 0.118749 0.986033 0.116784
 0.461188  0.298678 -0.835522 0.156487 0.979544 0.126509
 0.613703  0.322334 -0.720742 0.194062 0.967304 0.163285
0.000281254 -0.730877 -0.682509 0.182267 0.972427 0.145478
0.0469272 -0.515388 -0.855671 0.425466 0.901297   0.0815
0.0334886 0.868897 0.493858   0.444709    0.89479 -0.0398185
 0.555107  0.822085 -0.126619 0.0895621 0.912346 0.399505
0.121314 0.972305 0.199762  0.664649 0.0498066 -0.745494
0.0415114  0.98535 0.165415  0.117722 -0.787192 -0.605369
  0.55558  0.826925 0.0867451 0.0559969 -0.777391  -0.62652
0.840321   0.4041 0.361336  0.176707 -0.693052 -0.698894
0.877766 0.224394  0.42329  0.265906 -0.663564 -0.699269
0.783792 0.323555 0.530078  0.279502 -0.728163 -0.625825
 0.70556 0.507914 0.494174  0.218658 -0.757089 -0.615634
0.797676 0.484079 0.359696   0.27105 -0.695973 -0.664946
0.725451 0.545811 0.419298  0.287638 -0.775035 -0.562658
0.814371 0.444756 0.372816  0.289214 -0.805653  -0.51699
0.815813 0.437946 0.377693  0.352791 -0.708499 -0.611202
0.852901  0.42919 0.297247  0.240247 -0.597241 -0.765235
0.827542 0.413185 0.380069  0.403023 -0.586156 -0.702847
 0.88421  0.33751 0.322894  0.298932 -0.475979 -0.827094
0.882534 0.400135 0.247035   0.17279 -0.471304 -0.864879
0.922107 0.314584 0.225289  0.132046  -0.60249 -0.787128
0.955274 0.268628 0.123652 0.0747127 -0.478822 -0.874727
  0.992909   -0.10653 -0.0527614 0.0425963 -0.478388 -0.877115
0.974222 0.067191 0.215354  0.194363 -0.585651 -0.786916
0.264457 0.610284 0.746737   0.965948 -0.0192809  -0.258015
0.338064 0.635588 0.694075  0.926613 -0.220022 -0.304925
0.384824 0.612163 0.690773  0.853284  -0.41418 -0.316798
0.338519 0.589664 0.733281  0.923725 -0.245827 -0.293771
0.158951  0.57714 0.801027  0.971152  0.140192 -0.192898
0.195611 0.567793 0.799592   0.974611 -0.0699747  -0.212692
0.00329335 0.484682 0.874685   0.993269  0.0668569 -0.0945878
0.0834736 0.508072  0.85726  0.957393  0.246534 -0.150395
0.133856 0.579211 0.804113  0.929333   0.32336 -0.178263
0.0858079 0.520098 0.849786  0.897198  0.414775 -0.151651
0.0479264 0.513328 0.856853 0.811586 0.575288 -0.10184
 0.09655 0.572367 0.814293  0.854979  0.503618 -0.124012
0.225923 0.615317 0.755211  0.953982  0.174856 -0.243607
0.177265 0.611465  0.77116  0.903999  0.391103 -0.172696
0.241738 0.647694 0.722534  0.948297  0.216689 -0.231902
 0.30199 0.644306 0.702618   0.949952 -0.0378328  -0.310095
0.459685 0.480469 0.746886   0.957846  -0.284877 -0.0370973
0.564244 0.437877 0.699923   0.887383   -0.45326 -0.0843077
0.377959 0.635405 0.673356  0.875135 -0.442591  -0.19558
 0.33474 0.649569 0.682648  0.943179 -0.279256  -0.18008
 0.35115 0.503959 0.789126   0.995237 -0.0947785 -0.0228201
0.268331 0.657178 0.704354  0.977761 -0.104603 -0.181775
0.217295 0.654026 0.724592  0.982239  0.122471 -0.142155
 0.29705  0.49584 0.816029    0.993492    0.113831 -0.00395014
 0.429349 0.0989566  0.897701   0.990334 -0.0873356   0.107754
  0.37852 0.0898712   0.92122 0.984741 0.116211 0.129536
0.403606 0.140665 0.904055  0.994639 0.0951903 0.0404056
0.456862 0.140415 0.878385   0.985088  -0.165632 -0.0465509
0.517992 0.081015  0.85154   0.95353 -0.293568 0.0678194
0.504425 0.132569 0.853218  0.894772 -0.433548 -0.106857
0.544606 0.118611 0.830263  0.729731 -0.664193 -0.162297
 0.609612 0.0417777  0.791598   0.873005  -0.487667 0.00657497
 0.76056 0.260873 0.594553  0.363256 -0.880513 -0.304535
0.694301 0.474013 0.541533  0.327412 -0.799715 -0.503247
0.571965 0.514739  0.63867  0.452553 -0.747312 -0.486539
0.458675 0.546487 0.700692  0.641382 -0.710864  -0.28862
 0.756589 -0.182747  0.627835  0.232138 -0.939104 -0.253367
 0.606235 0.0996994  0.789012  0.561424 -0.748038 -0.353897
 0.595584 0.0744173  0.799839  0.116187 -0.772051 -0.624851
0.608427 0.434113 0.664351 0.00124588 -0.958006 -0.286744
 0.492874 -0.846541  0.201104   0.243847  -0.969658 -0.0173515
0.681587 0.488772 0.544556  0.0350418  -0.996984 -0.0692506
 0.27934 0.928273 0.245517 0.0248018  0.997274 0.0694871
 0.560681 -0.815131  0.145598 0.0742096 -0.992327 -0.098895
 0.909442 -0.319914   0.26565  0.237399 -0.936258 -0.258965
 0.902307 -0.403614  0.151451   0.15751 -0.954894  -0.25173
0.873407 0.353554 0.334902  0.398236 -0.832916 -0.384264
0.780348 0.468535 0.414163  0.417148 -0.805138 -0.421592
0.113734 0.585756 0.802468     0.6472   0.760684 -0.0499216
0.104744 0.577859 0.809387   0.573623    0.81843 -0.0335979
0.139845 0.617443 0.774085   0.624057   0.780293 -0.0411688
0.151504 0.625469 0.765399   0.707314   0.703974 -0.0642448
0.125918 0.594028 0.794528   0.730994   0.678177 -0.0756596
0.170073 0.634551 0.753937  0.798463  0.593382 -0.101756
0.198306 0.642741 0.739972  0.886954  0.434626 -0.156247
0.145175 0.602929 0.784475   0.82101  0.559296 -0.114588
0.0637616 0.559183 0.826589   0.677731   0.733204 -0.0556084
0.074204 0.564475 0.822108   0.765078   0.638634 -0.0824742
0.0251259 0.506137 0.862087   0.719037   0.691902 -0.0652537
0.0180427 0.505299 0.862756   0.634196   0.771936 -0.0437146
0.0595154 0.556325 0.828831   0.600417   0.798758 -0.0385436
0.0185931 0.509169 0.860466   0.561727   0.826729 -0.0313265
0.0199202 0.512918 0.858207    0.50126   0.864957 -0.0242255
0.0563339 0.553157  0.83117   0.534314   0.844834 -0.0276367
0.0498243 0.494436 0.867785 0.369552 0.929038 0.017869
0.036544 0.483394  0.87464  0.390415  0.920387 0.0215574
0.103484 0.580378 0.807746   0.549976   0.834708 -0.0280975
0.101324 0.574648 0.812104   0.510592   0.859294 -0.0301627
0.0146737  0.50011 0.865838 0.351041 0.936223 0.016023
0.0293271 0.516333 0.855886   0.477308     0.8785 -0.0203532
0.0172617 -0.457419 -0.889084   0.449336   0.893221 -0.0158983
0.0286763 -0.445203  -0.89497  0.336926  0.941416 0.0147158
0.0455113 0.582598 0.811486  0.200161  0.979709 0.0102474
0.0365112 0.634827 0.771792   0.193341    0.98109 0.00903941
0.0687603 0.772054 0.631826   0.115207   0.993332 0.00432493
0.0584494 0.634047 0.771082  0.118711  0.992915 0.0051574
0.0516872 0.447415 0.892832  0.205639  0.978561 0.0114572
0.0429923 0.397165  0.91674   0.120417   0.992705 0.00600332
0.050318 0.479167  0.87628   0.121391   0.992583 0.00650914
0.0516641 0.479565 0.875984  0.210488  0.977513 0.0128054
0.0855658 0.287597 0.953922  0.411531  0.910782 0.0334559
0.0981911 0.306312 0.946853 0.620089 0.783616 0.037899
 0.015022 -0.454144 -0.890802  0.589646  0.807584 0.0112065
0.00483364 0.496751  0.86788 0.405519 0.913673 0.027483
0.0177929 0.0476727  0.998705   0.22135  0.975033 0.0177687
0.042793 0.620493 0.783043 0.217359 0.975979 0.014824
0.0524735 0.604963 0.794523   0.124023   0.992254 0.00715375
0.0234855  0.245029 -0.969231   0.125448   0.992055 0.00942892
0.00855589  0.774665 -0.632313   0.21366   0.97669 0.0206596
0.0701766   0.87739 -0.474618  0.120353  0.992652 0.0125341
0.0730972  0.818788 -0.569423  0.112676   0.99355 0.0127596
0.0126912   0.51059 -0.859731  0.201541   0.97923 0.0221473
0.175704 -0.26954 0.946824  0.413924  0.909448 0.0396489
 0.132145 -0.095447  0.986624  0.406178  0.912613 0.0464381
 0.105573 -0.130124  0.985861  0.595301  0.797491 0.0981071
0.345778 0.132327 0.928939  0.616544  0.785764 0.0494882
0.225001 0.448334 0.865085  0.794708    0.6068 0.0152702
0.157001 0.628611 0.761708   0.767564   0.639478 -0.0437451
0.151632 0.621602 0.768517   0.678681   0.734007 -0.0250018
0.209599 0.433078 0.876648   0.70797  0.705991 0.0188477
   0.25895 -0.0026528   0.965887 0.795843 0.59592  0.1073
  0.212491 -0.0581032   0.975434 0.708566  0.69985 0.090246
 0.218626 0.0247683  0.975494  0.686398  0.722296 0.0845344
 0.263839 0.0720473  0.961872  0.780396  0.618106 0.0944856
 0.301546 0.0408986  0.952574 0.877437  0.46364 0.123055
0.307444 0.105288 0.945723  0.870255  0.482525 0.0991243
0.353665 0.128526   0.9265   0.94677  0.310264 0.0858035
 0.339074 0.0702753  0.938131 0.943828  0.30261 0.132728
0.241263 0.463057  0.85286  0.880026  0.474758 0.0126396
0.264203 0.480079 0.836493   0.951078   0.308856 0.00763568
0.185739 0.645515 0.740818  0.936467  0.335794 -0.101348
0.166817 0.636189 0.753283   0.858069   0.508896 -0.0688632
0.0507611 0.0294863 -0.998275   0.373629  -0.926056 -0.0531267
 0.0779361 -0.0420191  -0.996072   0.556523  -0.828073 -0.0676573
0.0615397 -0.102533 -0.992824   0.563866   -0.82379 -0.0585242
 0.0311416 -0.0337312  -0.998946   0.371712  -0.926827 -0.0531194
0.000917449 0.228088 -0.97364   0.182821  -0.982829 -0.0249928
0.0070355 0.0740807 -0.997227  0.180882  -0.98319 -0.024892
0.0212465 -0.286536  0.957834   0.100119  -0.994893 -0.0127804
0.0367801 -0.482965  0.874867   0.101617  -0.994735 -0.0132673
0.00613014  -0.4343 0.900747   0.187326   -0.98198 -0.0249718
0.0512118 -0.666658  0.743602   0.104294  -0.994452 -0.0137424
0.0591856 -0.735791  0.674618   0.108051  -0.994052 -0.0136246
0.00943295 -0.507021  0.861882   0.194181  -0.980662 -0.0244206
0.0761604  0.128107 -0.988832   0.380595  -0.923222 -0.0529918
0.0893324  0.181294 -0.979363   0.392275  -0.918358 -0.0523363
 0.122996 0.0855042 -0.988717    0.57925  -0.809992 -0.0915571
 0.112067 0.0287813 -0.993284   0.562068  -0.823277 -0.0793373
 0.151521 -0.141957 -0.978207   0.770954  -0.634789 -0.0516929
 0.117414 -0.174518 -0.977628   0.785559  -0.617572 -0.0387544
 0.108772 -0.168342 -0.979709   0.673632  -0.738071 -0.0383502
 0.136431 -0.128303 -0.982306   0.661583  -0.748359 -0.0476075
  0.187662 -0.0706896  -0.979687   0.767611  -0.636442 -0.0755916
  0.164229 -0.0466505  -0.985319   0.662293  -0.746492 -0.0641748
   0.187579 -0.00386749   -0.982242   0.675469  -0.733297 -0.0775675
  0.221909 -0.0394327   -0.97427   0.775896  -0.624165 -0.0916727
  0.211623 -0.0872399   -0.97345   0.868842  -0.488517 -0.0804003
  0.256255 -0.0647694  -0.964437   0.871626  -0.480074 -0.0989806
  0.29186 -0.080553 -0.953063   0.95114 -0.294983 -0.091196
   0.23614 -0.0960421  -0.966961   0.952687  -0.294951 -0.0734233
 0.169911 -0.152631 -0.973568    0.87616  -0.479642 -0.0478182
 0.186954 -0.157741 -0.969622   0.960838  -0.274609 -0.0371468
 0.12399 -0.17672 -0.97642   0.970119  -0.239638 -0.0379736
 0.124943 -0.177617 -0.976136   0.890875  -0.452822 -0.0359717
 0.102195 -0.195406 -0.975383    0.82748  -0.560428 -0.0345966
0.0928521 -0.189158 -0.977547   0.713884  -0.699181 -0.0389365
0.0894133 -0.174283 -0.980628   0.691261  -0.721669 -0.0367618
0.0955333 -0.177471 -0.979478  0.804196 -0.593292 -0.035685
0.0961789 -0.192514 -0.976569   0.923767  -0.381218 -0.0364326
0.0929401 -0.173949 -0.980359   0.906091  -0.421485 -0.0367335
0.0700197 -0.164963 -0.983811   0.976449  -0.208779 -0.0543947
0.0575172 -0.183235 -0.981385   0.982623  -0.174109 -0.0643231
 0.170983 -0.155815 -0.972875   0.937645  -0.340899 -0.0678921
 0.118824 -0.145574 -0.982186  0.984238 -0.144988 -0.101263
 0.196031  0.067417 -0.978277  0.959612 -0.142289  -0.24269
 0.273716 0.0507433 -0.960471  0.928005 -0.322647 -0.186297
 0.185539 -0.161248 -0.969316   0.849838  -0.524137 -0.0552894
 0.300419 0.0453636 -0.952728  0.852279 -0.502068  -0.14679
 0.290825 0.0653933 -0.954539  0.744028 -0.657852 -0.116843
 0.174951 -0.154111 -0.972441   0.737161   -0.67359 -0.0535742
 0.0143054 -0.0963285  -0.995247   0.378181  -0.924032 -0.0560715
  0.018569 -0.0569313  -0.998205  0.374079 -0.925833 -0.053842
0.0520701 -0.126048 -0.990657   0.577261  -0.814602 -0.0565062
0.0257854 -0.105548  -0.99408   0.594729  -0.801237 -0.0656953
 0.0570891 -0.0202414  -0.998164   0.380544  -0.922789 -0.0603893
 0.0762881 -0.0365589  -0.996415    0.61476  -0.784558 -0.0808637
 0.256483  0.118498 -0.959257   0.619914  -0.778445 -0.0986404
 0.122066  0.429383 -0.894835   0.375891  -0.924316 -0.0659262
0.00658332 -0.25815 0.966082    0.18092  -0.983131 -0.0268753
0.0154583 -0.781459  0.623765  0.174502 -0.984211 -0.029628
0.0578259 -0.879278  0.472786  0.0936434  -0.995458 -0.0171534
0.0413288 -0.553479  0.831837  0.0975465  -0.995135 -0.0138066
 0.0127996 -0.0836249  -0.996415    0.18098  -0.983161 -0.0253207
0.0129552 -0.161345  0.986813 0.0986981 -0.995039 -0.012481
0.0122541 -0.174604  0.984563   0.099246  -0.994984 -0.0125019
  0.0121668 -0.00980761   -0.999878   0.180352  -0.983287 -0.0248989
 0.187537 -0.171475 -0.967174   0.858519   0.512465 -0.0180298
 0.177562 -0.186981 -0.966183   0.701799   0.711868 -0.0268802
0.0221249 -0.230535 -0.972812  0.701071    0.7058 -0.101712
0.0467671 -0.206501 -0.977328   0.848815   0.521127 -0.0891079
 0.198636 -0.159902 -0.966941   0.966885   0.254924 -0.0121069
0.0816051 -0.184912 -0.979361   0.958158   0.277568 -0.0699263
 0.109349 -0.176622 -0.978186  0.998651 0.0122504  -0.05045
  0.19741 -0.158409 -0.967438    0.99946 -0.0223867 -0.0240453
  0.273621 -0.0904088  -0.957579    0.97516   0.220308 -0.0229581
  0.258272 -0.0964577  -0.961245   0.997109 -0.0540884 -0.0533715
  0.327011 -0.0861024   -0.94109   0.995792 -0.0653829 -0.0642071
  0.357911 -0.0822965  -0.930122   0.979324   0.201378 -0.0192709
  0.284306 -0.0794934  -0.955432   0.872273    0.48901 0.00308934
  0.386446 -0.0692178  -0.919711  0.881892  0.471002 0.0205612
  0.399107 -0.0634948  -0.914703  0.730301  0.682038 0.0385298
   0.28879 -0.0722652  -0.954661  0.713275  0.700759 0.0132938
0.0622892  -0.67867 -0.731797 0.0863519 0.994091 0.065771
0.0690071  0.68659 0.723762 0.0943059  0.995504 0.0087983
0.0454844 -0.204065   -0.9779    0.51687   0.852336 -0.0798027
 0.183527 -0.192178 -0.964046  0.505413  0.861932 0.0403791
 0.228474 -0.201815 -0.952402 0.0719943 0.989865 0.122406
  0.285321 -0.0737302  -0.955592  0.512975  0.854459 0.0821932
 0.393874 -0.075225 -0.916081 0.482221 0.854902 0.191324
 0.411986  0.201599 -0.888608 0.0521478 0.982942 0.176367
 0.135662  0.853869 -0.502497 0.0271454  0.998643 0.0444469
 0.251536  0.899201 -0.358004 0.0352063  0.998091 0.0507493
 0.109833 -0.964985 -0.238204 0.00672027   0.99969 0.0239731
0.0105154 -0.993105 -0.116756 0.00836081  0.999851 0.0151303
 0.02293 0.989333 0.143858  0.033542  0.998796 0.0358008
0.0151334  0.996698 0.0797695 0.0113217    0.9999 0.0084376
0.0184644  0.999605 0.0211641  0.00805652    0.999953 -0.00548167
0.0575726  0.995032 0.0812198 0.0508141  0.997748 0.0437721
 0.611004 0.0101746  0.791562 0.136203 0.975775 -0.17121
0.428723 0.118274  0.89566  0.525629  0.718797 -0.455021
 0.156788 0.0926749  0.983275  0.523688  0.815885 -0.245118
   0.301437 -0.00184985    0.953484   0.106553    0.99169 -0.0720882
 0.289542  0.954271 0.0743834  0.0797585   0.995178 -0.0570919
 0.107476  0.991532 0.0728887 0.0503881   0.99869 -0.008896
 0.735733 -0.528828  0.423128  0.0102274   0.999724 -0.0211651
 0.583657  0.811423 0.0305994  0.0233186   0.998837 -0.0422044
 0.786203  0.612124 0.0847888  0.201997  0.961027 -0.188743
   0.85356   0.517635 -0.0590741  0.025378  0.987724 -0.154135
 0.988076 0.0881709 -0.126221  0.334195   0.57854 -0.744046
 0.989309   0.14483 0.0170933 0.503307 0.511275 -0.69662
0.868553 0.251524 0.427027  0.430367  0.812555 -0.393114
0.970124 0.160974 0.181514  0.496037  0.432875 -0.752706
0.930894 0.287041 0.225929  0.534721  0.383996 -0.752742
0.750432 0.181651 0.635495  0.622876  0.573195 -0.532423
0.357782 0.255341 0.898217  0.855688  0.410815 -0.314689
0.147692 0.198453 0.968919  0.849696   0.48903 -0.197143
0.205561 0.221607 0.953223  0.711477  0.665715 -0.224999
0.475326 0.295949 0.828541  0.729469  0.569421 -0.378992
 0.50472 0.220924 0.834536  0.890878  0.329861 -0.312296
0.737583 0.289419 0.610088  0.798595  0.446964 -0.403075
0.800766 0.159355 0.577391 0.768951 0.341905  -0.5402
 0.510168 0.0216916  0.859801  0.854742  0.258339 -0.450196
0.207522 0.160125 0.965036  0.952433  0.196349 -0.233062
  0.199139 -0.0551699   0.978417  0.910411  0.151405 -0.385005
