 0.491568 -0.869892 0.0406115 0.0678413 0.0155301 -0.997575
 0.620394 -0.782779 0.0486656 0.0596143 0.0276561 -0.997838
 0.758363 -0.650037 0.0483439 0.0468835 0.0407648 -0.998068
 0.880232 -0.472234 0.0467662 0.0360395 0.0483435  -0.99818
  0.96566 -0.255367 0.0478385 0.0290163 0.0523822 -0.998205
 0.998383 0.0117158 0.0556185 0.0234514 0.0550622 -0.998207
 0.944921  0.323016 0.0527783 0.00988658 0.0559918 -0.998382
0.767577 0.640859 0.011175 0.00368278 0.0591261 -0.998244
 0.050244 -0.957341  0.284558  0.994154 0.0827485 0.0693635
0.0914837   -0.955 0.282146   0.981928   0.184545 -0.0419614
 0.222084  0.962813 -0.153852  0.574319 -0.116058  0.810363
 0.188209   0.96132 -0.201098  0.728725 -0.184145  0.659584
 0.130189 -0.949393  0.285839   0.98477  0.129879 -0.115584
 0.276098  0.960841 0.0235581 0.0408272 0.0837853  0.995647
0.214474 0.969121 0.121677  0.573086  0.678359 -0.459785
0.181914 0.967604  0.17507  0.740326  0.475446 -0.475257
0.137723 0.966817 0.215166  0.873289   0.19734 -0.445447
0.086494 0.966451 0.241849  0.920602 -0.108677 -0.375074
0.0217597 0.966822 0.254524  0.961334 -0.147781 -0.232373
0.0502097  -0.96433 -0.259896  0.737933 -0.660801 -0.137102
 0.113678  -0.96043 -0.254268  0.848438 -0.528838 0.0219963
 0.163145 -0.958155 -0.235206  0.915599 -0.293296  0.275056
 0.204874  0.968951 -0.138422  0.696256 -0.193335  0.691266
 0.154809  0.968296 -0.196056 0.712757 0.136914 0.687918
0.0450092  0.993346 -0.106012   0.40221 -0.685138    0.6073
0.0920907  0.986819 -0.133072  0.364343 -0.836068  0.410176
0.0548267 -0.968877  0.241395  0.745429 -0.526918  0.408282
0.0733005 0.936345 0.343345   0.94527 -0.110175 -0.307126
0.239226 0.927666 0.286718  0.873713 -0.185441 -0.449708
 0.51195 0.849763  0.12574  0.876539  0.227636 -0.424099
 0.159221  0.967551 -0.196201  0.885254 0.0113517  0.464969
 0.258714 -0.958761  0.117665  0.263787 -0.136783 -0.954833
 0.311681 -0.945087 0.0983139   0.233822 -0.0166121  -0.972138
 0.165354 -0.967787  0.189861  0.732179  0.296174 -0.613347
  0.20734 -0.960048   0.18793  0.727859  0.297336 -0.617909
 0.204964 -0.950628  0.233014  0.791071  0.113483 -0.601106
   0.1346 -0.945974 -0.294984  0.842138 0.0486117  0.537067
0.000447078 -0.967044  0.254609 0.95523 0.29166  0.0497
0.0871574 -0.943797 -0.318828  0.958464 -0.069232  0.276682
 0.175459 -0.948765 -0.262791  0.63365 0.276279 0.722605
 0.50065 0.853755 0.143009   0.870701 0.00969869  -0.491717
 0.346167 -0.850215  0.396615  0.810865 0.0423929 -0.583696
 0.426217 -0.759206  0.491879  0.817134 0.0289979 -0.575718
0.100427 0.947656 -0.30309    0.90828 -0.0445906   0.415979
 0.266103 -0.950384 -0.161116    0.719415 -0.00488203    0.694564
 0.550681 -0.795176  -0.25386  0.101579 -0.192358 -0.976053
 0.156237 -0.946682  0.281751  0.945009 -0.183824  0.270492
 0.269913 -0.920337  0.283067  0.909903 -0.361761  0.202991
 0.292978 -0.919137  0.263346  0.864653 -0.472626  0.170291
 0.333413 -0.912857  0.235645  0.935968 -0.346985 0.0597149
  0.39547 -0.892245  0.217949  0.956715 -0.132143 -0.259297
 0.415015 -0.886438  0.204914 0.00939967 -0.350783  -0.93641
 0.413763 -0.892794  0.178098 0.154227 0.424604 0.892146
  0.365123  -0.930684 -0.0226483 0.469089 0.034333 0.882483
 0.308063   0.14466 -0.940303    0.911195 -0.00305816    0.411964
  0.29986 -0.794734 -0.527714   0.915245 -0.0240291    0.40218
 0.120911  0.923283 -0.364595  0.944665 0.0558194  0.323253
 0.236954 -0.896277 -0.374888   0.923213 -0.0733243   0.377229
 0.194537 -0.938241 -0.286111  0.926818 -0.186073  0.326168
0.0536358 -0.930672  0.361902  0.884178 -0.222724  0.410638
0.00687776  0.892061 -0.451862  0.898408 -0.179565  0.400773
  0.40512  0.386562 -0.828521  0.863196 -0.232088  0.448361
 0.738353 -0.523056 -0.425732  0.777805 -0.221392  0.588222
 0.623666 -0.711846 -0.322979  0.758558 -0.193931  0.622077
 0.231072  0.933397 -0.274544   0.789018 -0.0360134   0.613314
0.555552 0.165423 -0.81486   0.742092 -0.0763067   0.665941
 0.508505 -0.769634 -0.386117   0.740142 -0.0754096   0.668209
 0.398908 -0.874938 -0.274511   0.737361 -0.0664368   0.672224
 0.611772 -0.723138 -0.320633  0.792739 -0.137728  0.593797
 0.706991 -0.529223 -0.469134  0.816603 -0.192035  0.544318
 0.280995  0.352742 -0.892533  0.913414 -0.202557  0.353051
0.124532 -0.86547 0.485236  0.949235 -0.145374   0.27896
0.160887 -0.90696  0.38928  0.943176 -0.172184  0.284203
 0.328538 -0.858755  0.393196   0.991298 -0.0822287   0.102796
0.587282 -0.79087 0.172118 0.219463 0.233051 0.947377
 0.591775 -0.763491  0.258618 0.00432602 -0.299838  -0.95398
 0.400549 -0.833107  0.381437   0.998524 -0.0542584 0.00235456
  0.49386 -0.791524  0.359988  0.985218 0.0921574 -0.144403
 0.544799 -0.768163  0.336333 0.875253 0.251064  -0.4134
 0.704518   -0.6772 -0.212262 0.654371 0.122795 0.746137
 0.802083 -0.495229 -0.333783  0.699789 0.0706307  0.710849
0.0440893 -0.19659 0.979494    0.98859 -0.0409663    0.14495
 0.335429 -0.796532  0.503015   0.997577 -0.0138634  0.0681809
 0.438091 -0.752465  0.491806   0.997993  0.0433399 -0.0461649
  0.59259 -0.666061  0.452989   0.95033  0.230393 -0.209267
 0.700123 -0.656857  -0.27994 0.0807712 -0.169838 -0.982156
 0.718688  -0.64993 -0.247139 0.0793284  -0.14381 -0.986421
 0.754636 -0.635368 -0.163808 0.0859474 0.148591 0.985157
 0.737889 -0.652599 -0.172146 0.463851 0.172401 0.868976
 0.885119 -0.392312 -0.250312 0.0753616 -0.183237 -0.980176
 0.905588 -0.378886 -0.190674 0.0886802 -0.167425 -0.981888
 0.47333  0.84044 0.263854 0.134805 0.334582 0.932675
0.473716 0.841262 0.260522 0.0594009 0.216312 0.974516
0.484029 0.834618 0.262925   0.28464 -0.145237 -0.947569
  0.927503  -0.361784 -0.0940715 0.00901286 0.195307 0.980701
 0.869751 -0.435393 -0.232305 0.494988 0.177799 0.850514
0.0941551 -0.151838  0.983911  0.998186 0.0356173 0.0485409
 0.209465 -0.122127  0.970159  0.974334  0.172552 -0.144561
0.419777 0.840456 0.342669   0.800889 -0.0721897  -0.594445
0.207809 -0.12461   0.9702  0.982295  0.150857 -0.111075
   0.27974 -0.0942455   0.955439 0.988704 0.133248 0.068626
 0.242125 0.0456803 -0.969169 0.921952 0.226283 0.314326
 0.0529699 -0.0127807  -0.998514 0.917362 0.258206 0.302948
  0.10036 0.0608974  0.993086 0.934338 0.248332 0.255624
0.236576 0.104684 0.965957 0.957939 0.231467 0.169633
0.597768  0.13569 0.790102  0.916233 0.0994925 -0.388096
0.723675 0.137597 0.676285   0.76301 0.0382367 -0.645254
0.917003 0.146122 0.371151   0.328713 -0.0936404  -0.939776
 0.978993  0.145138 -0.143207 0.265562 0.110814 0.957704
 0.640356  0.100814 -0.761433    0.786005 -0.00189084    0.618217
 0.403612 0.0989258 -0.909566   0.906266 -0.0138612   0.422479
 0.433841 -0.210739 -0.875997   0.903387 -0.0143947   0.428584
 0.630163 -0.199141 -0.750492   0.790724 -0.0012468   0.612171
 0.959499 -0.199443 -0.198959   0.2912 0.110848 0.950219
 0.915425 -0.175241  0.362338   0.336961 -0.0982965  -0.936373
 0.705826 -0.163663   0.68922   0.78363 0.0384845 -0.620034
 0.536821 -0.174106  0.825536  0.926266 0.0989006 -0.363661
0.0202516  0.306876 -0.951534 0.956188 0.234395 0.175395
 0.189595   0.36004 -0.913469 0.930602 0.249735 0.267603
 0.372651  0.390717 -0.841707 0.908682 0.255274 0.330351
 0.741982  0.368495 -0.560066 0.878774 0.202767 0.432021
 0.467204  0.803004 -0.370006 0.900857 0.24461 0.35864
 0.452087  0.843856 -0.289004 0.900016  0.26931 0.342699
 0.566529 -0.805737  -0.17272 0.305104 0.113603 0.945519
 0.366666 -0.770727 -0.521092     0.80976 -0.00266246    0.586755
 0.643569   0.75734 -0.110706 0.823822 0.11447 0.55517
 0.297595  0.828399 -0.474544 0.928517 0.270966 0.253838
 0.292239  0.873639 -0.389039 0.923226 0.310039 0.227002
 0.117597   0.82526 -0.552374 0.952613 0.270541 0.139054
 0.300043 -0.776224  0.554481   0.92212  0.143212 -0.359423
 0.330801 -0.848535  0.412987  0.712241  0.181725 -0.678004
 0.233712 -0.853174   0.46634  0.879363  0.253767 -0.402894
 0.123359  0.878233 -0.462048 0.941106 0.322042 0.103002
 0.413938 -0.772241  0.481974  0.780294 0.0671727 -0.621795
 0.570583 -0.777632  0.264052  0.317922 -0.084866 -0.944311
 0.038537   -0.9246 -0.378984  0.994435 0.0529729 0.0910694
0.0899614 -0.925713 -0.367371 0.905494 0.207908 0.369939
 0.214225 -0.832789  -0.51046  0.886262 0.0598909  0.459295
 0.181596 -0.930327 -0.318614 0.463119 0.550632 0.694496
 0.134871 -0.926392 -0.351579 0.715581 0.371551 0.591518
 0.110166  0.946976 -0.301828 0.954703 0.275681 0.111991
0.0975844 -0.961026  0.258661 0.642163 0.579442 -0.50187
 0.231016  0.935648 -0.266822 0.939399 0.201619 0.277272
 0.364413  0.909317 -0.200862 0.902146 0.250411 0.351321
  0.552662   0.832576 -0.0371717 0.833287 0.344526 0.432359
 0.170283  0.101885 -0.980114   0.971704 0.00159535   0.236197
 0.228845 -0.218609 -0.948599    0.970043 0.000715053    0.242933
 0.136348 -0.820137 -0.555684  0.957057 0.0641184  0.282719
0.0208473 -0.094987   0.99526  0.993646 0.0630871 0.0932072
0.0548103 -0.228007 -0.972116  0.993777 0.0619908 0.0925491
0.0625966 -0.811872  -0.58047  0.989833 0.0899116  0.110215
  0.287867 -0.0298651   0.957204  0.969797  0.199357 -0.140534
0.222514 0.290274 0.930714  0.969501  0.201138 -0.140042
0.091804 0.817065  0.56919  0.969456  0.191561 -0.153167
 0.116849 -0.201947  0.972401  0.987418  0.148114 0.0553882
0.708435 0.196756 0.677795  0.953121  0.163995 -0.254296
0.635415 0.733838 0.240271   0.819289 -0.0453034  -0.571588
0.688189 0.704812 0.172149  0.694021 -0.136604 -0.706877
 0.727378  0.685354 0.0348011  0.600647 -0.151081   0.78511
0.723638 0.682276 0.104151  0.437947  -0.18726 -0.879281
  0.65355 -0.627569  0.423118  0.846687  0.277875 -0.453769
  0.975066   0.219282 -0.0340776   0.634099 -0.0856858    0.76849
 0.95348 0.127218 0.273298  0.175997 -0.213552 -0.960948
 0.732925 -0.621231  0.277296 0.0295204 -0.324306 -0.945492
 0.722375 -0.678088  0.135542 0.239355 0.206455 0.948728
0.800609 0.176638 0.572559    0.898883 -0.00773254   -0.438121
 0.258224  0.125892 -0.957847 0.967574 0.035852  0.25003
 0.359251  0.114834 -0.926149  0.809758 0.0428555  0.585198
 0.599942  0.798287 0.0529865 0.781869 0.302457 0.545161
0.572327 0.816222 0.078886  0.159256 -0.487425 -0.858519
0.551818 0.826112 0.114172  0.812338  0.105374 -0.573588
0.539491 0.830494 0.138673   0.86625  0.122763 -0.484293
0.0714255  0.92073 0.383606 0.966664 0.018211  -0.2554
 0.681165  0.711356 -0.173166 0.826663 0.115027 0.550815
 0.790924   0.61136 0.0260456  0.581743 -0.157609  0.797956
0.787842 0.602144 0.129332  0.389126 -0.220388 -0.894433
0.737132 0.636973 0.225616  0.667646 -0.164432 -0.726093
0.664881 0.675119 0.319606   0.837366 -0.0125423  -0.546499
0.112304 0.747787 0.654372  0.969038  0.204008 -0.139089
0.0748047 -0.732989 -0.676115  0.991701 0.0769499  0.102994
 0.172833  -0.74237 -0.647313  0.966584 0.0203434  0.255542
  0.27488 -0.756755 -0.593096    0.905083 -0.00190022    0.425231
 0.290036 -0.845261  -0.44879  0.787329 0.0543215  0.614136
 0.119639   0.91479 -0.385806 0.839758 0.134467 0.526046
 0.117211  0.916974 -0.381339   0.902207 -0.0804472   0.423734
0.0736625 0.920856 -0.38288    0.96891 -0.0604446   0.239917
  0.14391 -0.918435  0.368467  0.981757  0.149316 -0.117719
0.0492854 -0.924871  0.377075  0.992028  0.107961 0.0649984
0.0309767  0.928971 -0.368855  0.975216 0.0767088   0.20753
 0.141629   0.93215 -0.333224    0.905113 0.000478346    0.425171
 0.231031  0.933705 -0.273533   0.765515 -0.0502113   0.641456
  0.348263   0.935688 -0.0565744  0.236599 0.0719574  0.968939
0.352789 0.920517 0.167893   0.332909 -0.0792143  -0.939626
0.312498 0.905609 0.286736  0.668234 -0.069828 -0.740667
0.278824 0.897928 0.340561   0.830116 -0.0399508  -0.556158
0.169533 0.891368 0.420382   0.996977  0.0772331 0.00848963
0.143987 0.893731 0.424868 0.980766 0.126663  0.14851
0.132803 0.896211 0.423283 0.963614 0.155986 0.217063
0.160869 0.893417 0.419438   0.9696 0.144488 0.197481
0.273738 0.871402 0.407095   0.996893  0.0671909 -0.0410991
0.346082 0.854739 0.386845  0.960262  0.045132 -0.275428
 0.319495 -0.925209 -0.204723   0.732753 -0.0533036   0.678404
 0.482625 -0.858144  0.175104  0.23557  0.22951 0.944368
 0.483725 -0.846062   0.22403 0.00870041 0.301089 0.953556
0.456946 -0.84909 0.265039  0.911556  0.192945 -0.363094
 0.402013 -0.868723  0.289319   0.989302  -0.140361 -0.0397535
 0.347316 -0.885048  0.309939  0.959195 -0.267034 0.0929383
 0.306215 -0.894537  0.325632  0.961102 -0.225647  0.159268
  0.17188 -0.929079   0.32752 0.941256 -0.18528 0.282326
  0.426321  -0.903661 -0.0405884   0.494609 -0.0289442   0.868634
  0.506806  -0.856757 -0.0954701   0.512583 -0.0642091   0.856234
 0.609255  -0.76714 -0.200757  0.540053 -0.111922  0.834156
 0.706469   0.13692 -0.694374   0.63293 -0.174825  0.754212
  0.22457  0.935529 -0.272678   0.685342 -0.0680523   0.725035
0.0819388 -0.949215  0.303771 0.865312 -0.27705 0.417706
0.519936 0.838825 0.161368   0.859732 -0.0337945  -0.509626
 0.123259 -0.945401  0.301703   0.993016 -0.0468684  -0.108269
0.0648703  0.948863 -0.308952  0.962744 -0.104292  0.249493
  0.973974 -0.0248649   0.225293  0.202214 0.0490673 -0.978111
 0.727001 -0.661837  0.182868  0.216453 0.0315651 -0.975783
 0.597815 -0.785557  0.159743  0.220775 0.0233927 -0.975044
 0.646229 -0.701726 -0.299947  0.712309 -0.130576  0.689613
  0.76783 -0.527997 -0.362844  0.740518 -0.168752  0.650504
 0.500449  0.382871 -0.776505  0.800984 -0.194859  0.566087
 0.131432  0.906599 -0.401003  0.828659 -0.157559  0.537121
0.0492597  0.947721 -0.315276  0.792311 -0.257232   0.55324
0.00781404  0.964958 -0.262287  0.638147 -0.541548  0.547261
0.640445 0.731051 0.235362 0.0394911  0.24717 0.968167
0.655666 0.723261 0.216785 0.00336229 0.167373 0.985888
0.670447 0.689105 0.275019  0.294952  -0.12342 -0.947508
0.542559 0.702616 0.460392    0.840322 -0.00784874   -0.542031
0.416486 0.728116 0.544414  0.963094 0.0519905 -0.264098
0.314362 0.753848 0.576966   0.997034   0.054821 -0.0540161
0.161698 0.802858 0.573822 0.969769 0.146961  0.19481
0.0919166 0.826976 0.554673 0.950351 0.200859 0.237673
0.103908 0.825389  0.55492 0.962789 0.196518 0.185522
0.154009 0.818161 0.553981  0.983609  0.168615 0.0638911
0.370346 0.808122 0.458019   0.848262 0.00581757  -0.529546
0.423388 0.818285 0.388783   0.686461 -0.0314103  -0.726488
0.489174 0.843073 0.223466     0.3294 -0.0871042  -0.940164
  0.488879   0.867859 -0.0884171   0.24348 0.0867516  0.966018
 0.311215  0.867327 -0.388446   0.772475 -0.0219659   0.634666
 0.197051   0.86533 -0.460842   0.902321 -0.0121855   0.430894
0.0733682  0.860519 -0.504107  0.972527 0.0212125  0.231823
0.0344252 -0.853832  0.519409  0.993705 0.0795187 0.0789078
 0.178819 -0.847667  0.499484  0.976873  0.172368 -0.126525
0.0770496  0.866507 -0.493183    0.975772 -0.00860363    0.218619
 0.144391  0.858149 -0.492677   0.908313 -0.0658228    0.41308
 0.152576  0.856124 -0.493734 0.844475 0.122483 0.521402
 0.299775  0.884292 -0.357998  0.667592 -0.122951  0.734305
  0.28659  0.870375 -0.400392   0.790216 -0.0213016   0.612458
0.157143 0.857761 -0.48944  0.940258 0.0411557  0.337967
0.571919   -0.111 0.812765  0.844384 0.0050991 -0.535714
0.310333 0.835365 0.453717  0.854589 0.0208763 -0.518886
0.221064 0.919708 0.324451  0.862258 0.0426677 -0.504669
0.171694 0.951294 0.256047  0.871739  0.108008 -0.477919
0.126236 -0.94368 -0.30583  0.963855 -0.218212  0.152863
 0.142194 -0.906368 -0.397842   0.973593 -0.0614848   0.219855
 0.169666 -0.809064 -0.562698    0.969803 -0.00911931    0.243721
 0.138283  0.138409 -0.980674   0.971021 0.00455695   0.238949
0.0479906   0.84184 -0.537589  0.985456 0.0509188  0.162121
0.0182053   0.90973 -0.414801  0.986906 0.0924758  0.132157
0.0820983  0.976253 -0.200474  0.380855 -0.724474  0.574532
 0.131535  0.959037 -0.250891  0.654013 -0.274967  0.704741
  0.23979   0.91454 -0.325756   0.71059 -0.105915  0.695588
 0.641339  0.350382 -0.682581  0.706836 -0.101676  0.700032
 0.787955 -0.518679 -0.331811   0.671318 -0.0783789   0.737013
 0.658835 -0.698042 -0.280486     0.6232 -0.0316039   0.781423
 0.347056 -0.923004 -0.166179 0.502067 0.154132 0.850983
 0.282336 -0.946364 -0.157103 0.490658 0.168301 0.854944
 0.227905 -0.957094 -0.178973 0.484168  0.17948 0.856369
 0.987554 -0.149775 0.0480056  0.430809 0.0926904  0.897671
 0.809885 -0.315743  -0.49436  0.603879 -0.173242  0.778022
 0.659581 -0.281032 -0.697119   0.740065 -0.0785551   0.667932
 0.400894  -0.27217 -0.874761    0.910446 -0.00399032    0.413608
 0.221559 -0.272416 -0.936323   0.970057 0.00215998   0.242867
0.511082 0.276984  0.81368  0.842125 0.0014883 -0.539281
0.928154  0.30069 0.219351   0.18892 0.0507121 -0.980682
 0.519274  0.644305 -0.561449   0.708539 -0.0992878   0.698652
 0.339392  0.665734 -0.664539  0.813372 -0.177796  0.553908
 0.162878   0.66415 -0.729641 0.882632 -0.20682 0.422121
0.00598465 -0.623493  0.781806 0.937676 -0.16765 0.304397
 0.247882 -0.486144  0.837985   0.995715 -0.0160299  0.0910715
 0.312012 -0.447007  0.838352   0.999246  0.0373074 -0.0107268
0.584495 -0.34029 0.736592  0.958753   0.21716 -0.183395
 0.745958 -0.246045  0.618876 0.898512 0.240715 -0.36706
 0.958055 -0.113898  0.262977 0.0465704 -0.213942 -0.975736
0.771569 0.547571 0.323802  0.698364  -0.13515 -0.702867
 0.68954 0.583534 0.428978   0.87568 0.0494475 -0.480353
0.141553 0.650487  0.74621  0.969216  0.207426 -0.132643
0.0834145 -0.618782 -0.781122  0.992511 0.0703266 0.0998827
 0.210291  -0.62424 -0.752398   0.968689 0.00672674   0.248185
 0.343086  -0.63463 -0.692486   0.907007 -0.0145445   0.420864
 0.460173 -0.645152 -0.609934    0.809476 -0.00901533    0.587084
 0.694413 -0.692021 -0.197224 0.309767 0.106671  0.94481
 0.694741 -0.652402  0.302833  0.342923 -0.106772 -0.933276
  0.52203 -0.635394  0.568998  0.798887 0.0350426 -0.600459
 0.383197 -0.640881  0.665155  0.931266  0.107649 -0.348074
 0.114044  0.732436 -0.671216 0.955862 0.246889 0.159291
 0.291989  0.748498 -0.595394 0.929527 0.252011 0.269202
 0.460743  0.734891 -0.497645  0.90111 0.238184 0.362311
 0.713952  0.644615 -0.273394 0.836828 0.133855  0.53085
   0.855934    0.517083 -0.00161419   0.57985 -0.148499  0.801076
0.845131 0.499154 0.191309  0.342875 -0.252338 -0.904855
  0.998351  0.0541522 -0.0190244 0.0741954 -0.236994 -0.968674
 0.998554 0.0522847 0.0125036 0.0718348 -0.186307 -0.979862
 0.999179  0.029168 0.0281023 0.0820007 -0.224453 -0.971029
  0.988627 -0.0789937  -0.127971  0.40813 0.208354  0.88883
 0.903053 -0.247277  -0.35121  0.709736 0.0281811  0.703904
 0.786223 -0.263936  -0.55874  0.836405 -0.213816  0.504688
 0.834932 -0.291711 -0.466684 0.797405 -0.23586 0.555442
 0.850488 -0.306093 -0.427758   0.76909 -0.195191  0.608606
 0.865564 -0.274518 -0.418854  0.708715 -0.104556  0.697704
 0.842119 -0.499511  0.203285  0.214077 0.0373502 -0.976103
 0.513787 -0.615552  0.597593   0.82416 0.0193394 -0.566026
0.0737942  0.704671 -0.705686  0.982028 0.0274556  0.186726
 0.198997  0.720947 -0.663804  0.93426  0.02398 0.355784
 0.366368  0.739002 -0.565376   0.778855 -0.0399847   0.625928
 0.418864  0.769203 -0.482576   0.65275 -0.153321  0.741897
 0.209752  0.745136 -0.633069   0.84641 0.0974936  0.523532
  0.17711  0.747775 -0.639895   0.921591 -0.0295226   0.387037
  0.05952  0.760584 -0.646506  0.982961 0.0542267  0.175635
 0.229167 -0.694002  0.682528  0.971935  0.189921 -0.138824
0.0176213 -0.703135  0.710838  0.993968 0.0683332  0.085785
 0.126525  0.712756 -0.689906   0.969772 0.00152244   0.244007
 0.279833  0.719025 -0.636158   0.900136 -0.0186429   0.435209
 0.426166  0.720207 -0.547434     0.77681 -0.00849481    0.629678
 0.682493   0.71686 -0.142531 0.254387 0.104498  0.96144
0.665506 0.687209 0.291283   0.327111 -0.0898708  -0.940703
0.559929 0.654713  0.50777   0.705806 -0.0021301  -0.708402
0.480753 0.643604 0.595525  0.868909 0.0480146 -0.492637
0.189577 0.655672 0.730859 0.973115 0.206687 0.101627
0.121821 0.660763 0.740643 0.950323 0.228471 0.211395
0.0937962 0.661119 0.744395 0.936048  0.23581 0.261167
0.159455 0.628232 0.761511 0.956358 0.187573 0.224043
0.327447 0.576374 0.748714   0.994495   0.103888 -0.0137027
0.485574 0.547613 0.681423  0.966595 0.0783448 -0.244042
0.630155 0.499001 0.594898    0.874275 -0.00556376     -0.4854
 0.84065 0.458311 0.288545  0.215435 -0.187251 -0.958397
  0.8643 0.466324 0.188486 0.0210899 -0.188933 -0.981764
0.851747 0.476553 0.217771 0.0373511 -0.254247 -0.966418
 0.183916 -0.878051  0.441817  0.966019 0.0864537 -0.243585
 0.211493 -0.797202  0.565455  0.974049 0.0534014 -0.219947
  0.23961 -0.655816  0.715886  0.980272 0.0311541 -0.195184
 0.282995 -0.425225  0.859708  0.984488 0.0210047 -0.174192
0.0904434  0.964619 -0.247648 0.745794 0.115641 0.656062
 0.243042 -0.126488  0.961734  0.988415 0.0156933 -0.150961
0.162188  0.27344 0.948117  0.988592 0.0132189 -0.150035
0.120929 0.621491 0.774032   0.98896 0.0121348 -0.147683
0.0880871 0.826434 0.556101  0.990186 0.0196085 -0.138375
0.0529098 0.917617 0.393928   0.987363 -0.0177755  -0.157473
0.030168 0.950998 0.307723  0.969256 -0.133068 -0.206966
 0.240893 -0.967754 0.0736359  0.251245  0.388524 -0.886524
 0.259958 -0.959764  0.106183   0.33774  0.131403 -0.932022
 0.293289 -0.945496  0.141487  0.367994 0.0280896 -0.929404
  0.35016 -0.921341  0.168878   0.374083 0.00609394  -0.927375
 0.546198 -0.803143  0.237968   0.367174 0.00870789  -0.930112
 0.091324 -0.959117  0.267872  0.965563 0.0713964 -0.250181
 0.594014 -0.800958 0.0749233    0.1757  0.938278 -0.297934
 0.176096 -0.955802  0.235442  0.989686 0.0873524 -0.113543
0.0611931   0.96393 -0.259027  0.945756 -0.190596  0.263095
0.0897607  0.964385 -0.248805  0.921436 0.0748877  0.381246
0.0916518   0.96415 -0.249028 0.785024 0.483292 0.387514
 0.187799   0.96226 -0.196944  0.737387 -0.067231  0.672116
  0.970712 0.00858734  -0.240091 0.0585453 -0.969705  0.237158
0.0719693  0.965262 -0.251178  0.94396 0.207822 0.256415
0.00115193 -0.958836  0.283957  0.980954  0.172768 0.0887773
 0.233986 -0.934087  0.269689  0.800112 0.0789091 -0.594638
 0.378603 -0.918702   0.11246   0.229585 0.00149041  -0.973287
 0.430632  -0.88171 -0.192726  0.534202 0.0975952  0.839704
  0.43176 -0.882314 -0.187363   0.643447 0.00808398   0.765448
 0.439719 -0.884268 -0.157214   0.701547 -0.0470118   0.711071
 0.456282 -0.881844 -0.118986  0.719806 0.0731933  0.690305
 0.920345  0.361706 -0.148777 0.0392497 -0.970549  0.237686
  0.367691  -0.926663 -0.0780938   0.552594 -0.0209725   0.833187
 0.333732 -0.928101 -0.165077 0.114045 0.108917 0.987487
 0.356168 -0.911139 -0.207292   0.15554 -0.270507  -0.95007
 0.377976 -0.901775 -0.209609  0.230994 -0.417826 -0.878671
 0.210286  0.530578 -0.821138  0.946307 0.0215992  0.322548
 0.299861  0.521669 -0.798714 0.831895 0.051677 0.552522
 0.576821  0.527339 -0.623852  0.644654 -0.165672  0.746307
 0.462636  0.505508 -0.728306  0.759537 -0.063818  0.647326
 0.240523  0.471309 -0.848538   0.924111 0.00625881   0.382073
0.0874203  0.457012 -0.885154  0.977395 0.0127615  0.211034
 0.591393 -0.401818   0.69914  0.834217 0.0110757 -0.551324
 0.930853 -0.294333  0.216521  0.210085  0.043528 -0.976714
 0.733529 0.0764028  -0.67535  0.707765 -0.105493  0.698527
 0.648893 0.0685041  -0.75779  0.785485 -0.200795  0.585401
  0.60251 0.0493782 -0.796582  0.836259 -0.244297  0.490907
 0.504174 0.0238625 -0.863273  0.882821 -0.221294  0.414315
  0.141472 -0.0741894  -0.987158   0.961791 -0.0726792   0.263963
0.296688 0.17182 0.93939   0.999009 0.00536986  -0.044182
 0.30418 0.239456 0.922028  0.966535  0.129644 -0.221363
0.212305  0.23317 0.948977    0.9811  0.136222 -0.137424
0.251891   0.2664 0.930367   0.99214  0.122014 0.0277615
0.0398787 0.331914 0.942466 0.943249 0.211932 0.255667
0.0524328 0.375706 0.925255 0.925736 0.253219 0.280879
0.128043   0.3893 0.912168 0.941478 0.243648 0.232925
0.224236 0.403022 0.887295 0.965403 0.224036 0.133437
0.549346 0.417544 0.723793  0.894057 0.0826599  -0.44026
0.658775 0.426807 0.619557  0.732493 0.0242315 -0.680343
0.818086 0.450533 0.357429   0.326074 -0.0911721  -0.940937
 0.877959  0.451817 -0.158267 0.256551 0.106576 0.960637
 0.553403  0.432802 -0.711637    0.780743 -0.00210396    0.624849
 0.357092  0.436862 -0.825613   0.902765 -0.0145883   0.429886
  0.15786  0.438702 -0.884659   0.970827 0.00177038   0.239774
0.0213444 -0.432279  0.901487  0.994103 0.0660823 0.0859752
 0.280347 -0.405559  0.870016 0.969516 0.196685 -0.14613
0.00188513  0.547843 -0.836579  0.98721 0.104846 0.120103
  0.22223 -0.949773  -0.22033  0.669232 -0.297013  0.681111
 0.190399  0.930514 -0.312878  0.878744 0.0287943  0.476425
 0.235956  0.865623 -0.441612  0.874786 0.0217882   0.48402
  0.29624  0.729919 -0.616004   0.865828 0.00487171   0.500318
 0.366118  0.486463 -0.793291   0.847427 -0.0180774   0.530605
 0.450308  0.155427 -0.879241   0.829294 -0.0281553   0.558103
  0.54749 -0.272624 -0.791158   0.830127 -0.0295063   0.556792
  0.41659 -0.779775 -0.467336  0.837471 -0.045013  0.544625
 0.324121  -0.88491 -0.334484   0.843318 -0.0631755   0.533688
 0.258479 -0.932161 -0.253506   0.848988 -0.0931747   0.520133
 0.213923 -0.955322 -0.203951   0.85098 -0.103825  0.514833
 0.118136 -0.946017  0.301822  0.961109  0.102472 -0.256455
 0.238594   0.93534 -0.261176   0.731082 -0.0955586   0.675565
 0.304991  0.877335 -0.370492  0.722603 -0.115984  0.681464
 0.406231  0.752882 -0.517828  0.710018 -0.135371  0.691049
 0.527745  0.517225 -0.673768  0.698445 -0.143863  0.701055
 0.616999  0.158393 -0.770859   0.68367 -0.147499  0.714731
 0.726823 -0.297911 -0.618852  0.664816 -0.148569  0.732084
 0.564381 -0.769824  -0.29807  0.634753 -0.117916  0.763665
 0.457453  -0.86773 -0.194377   0.621903 -0.0898036   0.777928
  0.37691  -0.91665 -0.133012   0.611418 -0.0645969   0.788667
 0.317696 -0.942759 -0.101367  0.583218 0.0218223  0.812022
0.240418 0.916669 0.319246   0.93059    0.1003 -0.352055
0.274235 0.829267 0.486942  0.927167  0.258907 -0.270793
0.290693 0.763355 0.576877 0.926637  0.27171 -0.25984
0.323896  0.66289 0.675032  0.926964   0.27685 -0.253165
0.417817 0.287087  0.86198  0.928706  0.270652 -0.253482
  0.425527 -0.0493232   0.903601  0.931347  0.264215 -0.250564
 0.376584 -0.428273  0.821442  0.936997  0.251788 -0.242155
 0.302844 -0.698513  0.648356  0.948604  0.224471 -0.223077
 0.230754 -0.840824  0.489661  0.966649  0.169179 -0.192269
 0.169712 -0.910339  0.377467  0.985163  0.077971 -0.152886
0.0847032 -0.964747  0.249176  0.978627 -0.196111 -0.061882
  0.18501 -0.954217  0.235035   0.924229   0.368701 -0.0993019
 0.103868 -0.921877  0.373303   0.983725   0.176083 -0.0357822
 0.116482 -0.850339  0.513181  0.984935  0.170101 -0.031132
 0.137717 -0.696938  0.703784   0.984353   0.173543 -0.0305416
 0.167174 -0.417116  0.893346   0.984559    0.17336 -0.0242967
  0.163791 -0.0622911   0.984527    0.985901    0.167253 -0.00507555
0.0783074 0.258449 0.962846    0.986005    0.166662 -0.00432468
0.0239394 0.631516 0.774993   0.986277   0.164793 -0.0100357
0.015116 0.737246 0.675455   0.98789  0.153733 -0.020949
0.0131444 0.812466  0.58286   0.990203   0.134871 -0.0361502
0.021047 0.922684 0.384981    0.98923 -0.0470731  -0.138593
0.537633 0.821157 0.191445   0.853759 -0.0556255  -0.517689
0.557549 0.796583 0.233654   0.864947 -0.0229448  -0.501338
0.576325 0.761179 0.297417  0.881896 0.0263406 -0.470708
0.590321 0.706304 0.390711  0.902547 0.0870613 -0.421698
 0.60344 0.612142 0.511021  0.923092  0.151224 -0.353598
 0.62392 0.449424 0.639329  0.939707   0.20586 -0.273078
0.606467 0.203619 0.768594  0.953392  0.236768 -0.187044
 0.403209 -0.162151  0.900627  0.969182  0.228732 -0.091478
  0.18849 -0.535058   0.82352    0.98003   0.195469 -0.0365177
0.0773468 -0.759508  0.645883   0.988519   0.151054 0.00345748
  0.6631 -0.69337 0.282022   0.364803 0.00880468  -0.931043
 0.206141 -0.939222 -0.274534 0.271462 0.619479 0.736582
 0.360191 -0.856523 -0.369637 0.647874 0.096454 0.755616
 0.445103 -0.786201 -0.428686  0.678591 0.0265621  0.734036
 0.554891 -0.662674  -0.50295  0.679238 0.0142536   0.73378
 0.782374 -0.193464 -0.591999  0.648181 0.0222307  0.761162
 0.822786  0.111524 -0.557302  0.628778 0.0211805  0.777296
 0.714848  0.432139 -0.549771  0.620962 0.0218298  0.783537
 0.545109  0.719862 -0.429714  0.616091 0.0172013  0.787487
 0.395547  0.868912 -0.297546    0.606166 -0.00167319    0.795337
 0.286003  0.935484 -0.207536   0.598542 -0.0237876   0.800738
 0.773877 -0.543436  0.325257   0.365226 0.00680717  -0.930894
 0.867471 -0.340403  0.362795  0.366258 0.0058923 -0.930495
 0.325141  0.936695 -0.129944   0.399027 0.00212768   0.916937
 0.454106  0.869992 -0.192098  0.412299 0.0398941  0.910175
0.631574 0.720388 -0.28663  0.424845 0.0636711  0.903024
 0.826606  0.441501 -0.348998 0.427213 0.067003 0.901665
 0.936668  0.131573 -0.324565  0.434022 0.0669688   0.89841
  0.89831  -0.19233 -0.395029  0.468575 0.0690993  0.880717
 0.636059 -0.681525 -0.361873  0.504554 0.0616791  0.861174
 0.513267 -0.799818 -0.311203  0.500603 0.0703255  0.862816
  0.914721 -0.0604483   0.399538   0.365595 0.00745262  -0.930744
0.360945 0.932169 0.027915 0.0379998 0.0693634  0.996867
 0.505641  0.862458 0.0222037 0.0533199 0.103443 0.993205
  0.70305  0.711067 0.0102614 0.0663888 0.122977 0.990186
 0.88845 0.458204 0.026563 0.0732721 0.129314 0.988893
 0.988593  0.148098 0.0274008 0.0855552 0.138039 0.986725
   0.979921   -0.199277 -0.00653016 0.101429 0.142949 0.984519
   0.72593  -0.687296 -0.0254875 0.104477 0.151763  0.98288
 0.597313 -0.801574  -0.02638   0.1031 0.158506  0.98196
 0.87836  0.28451 0.384106   0.358426 0.00941791  -0.933511
0.337584 0.913437  0.22731   0.503948 -0.0764195  -0.860347
0.462502 0.831038 0.308979   0.511763 -0.0591604  -0.857087
0.619977 0.671814 0.405333   0.519645 -0.0467314  -0.853103
0.750225 0.440082 0.493448   0.530305 -0.0367633   -0.84701
0.836096 0.144987 0.529077   0.548779 -0.0305549  -0.835409
 0.832492 -0.160569  0.530259     0.5684 -0.0315132  -0.822148
 0.629155 -0.636733  0.445796   0.581867 -0.0336613  -0.812587
0.509371 -0.77021  0.38382   0.551415 0.00338914  -0.834224
 0.418636 -0.844265  0.334606  0.473831  0.115511 -0.873007
0.0655075 -0.950812  0.302763  0.780686   0.53713 -0.319407
 0.126282 -0.858935   0.49627  0.955229   0.23606 -0.178362
 0.175105 -0.786093  0.592787  0.973701  0.176001 -0.144669
 0.232733 -0.659163   0.71508  0.977757  0.159418 -0.136301
0.356566 -0.19747 0.913163   0.97716  0.156872 -0.143348
0.482224 0.140478 0.864712  0.974481  0.157089 -0.160341
0.445431  0.41623 0.792682  0.965743  0.141585 -0.217471
0.388416 0.643252 0.659818  0.955633  0.110132 -0.273197
0.304423 0.805313 0.508721  0.945215 0.0629595  -0.32032
0.241806 0.893036 0.379496    0.932558 -0.00177163   -0.361015
0.717977 0.631682 0.292381  0.360855  0.014894 -0.932503
0.510054 0.838571 0.191424  0.370602 0.0316347 -0.928253
0.202768 0.891303 0.405542   0.98508 0.0333347 -0.168837
0.227107 0.810038 0.540611  0.986318  0.119552 -0.113505
0.284744 0.649316 0.705202   0.984051   0.165287 -0.0657515
0.332533 0.413807 0.847458   0.981576   0.190167 -0.0185883
0.357888 0.132628 0.924297  0.978671  0.202764 0.0330246
0.160961 -0.24755 0.955411  0.977673  0.206224 0.0403429
0.0681657 -0.696212  0.714592  0.974768  0.221924 0.0240361
0.0444805 -0.805344  0.591137   0.969187   0.246245 0.00640226
0.0186462 -0.86829 0.495707   0.950608   0.308611 -0.0332189
0.0154289  0.949422 -0.313622  0.911069  0.399503 -0.101738
0.365951 0.922861 0.120032  0.407362  0.122042 -0.905076
0.138034 0.896424 0.421153 0.959709 0.156975 0.233059
0.115182  0.81877 0.562449 0.954413 0.177194 0.240205
0.108706 0.649651 0.752421  0.93939  0.21705 0.265397
0.00869779 0.355941 0.934468 0.925614 0.241052 0.291775
 0.210872 0.0329848 -0.976957 0.911715 0.249133 0.326663
 0.576961  0.393869 -0.715531 0.893042  0.23812 0.381804
 0.612167  0.693553 -0.379784 0.871627 0.191829 0.451075
 0.601174  0.755972 -0.259028  0.86785  0.18248 0.462101
 0.572969  0.797894 -0.187272  0.86773 0.193043 0.458016
 0.479339  0.870054 -0.115069 0.862506 0.337558 0.377012
 0.473727 -0.869869  0.137514  0.227018 0.0106502 -0.973832
0.205725  0.88573 0.416123 0.987162 0.114433 0.111429
0.227181 0.781231 0.581435 0.989545 0.103175 0.100771
0.231702 0.601892 0.764225 0.980139 0.143481 0.136898
0.159003 0.299737 0.940678 0.973483 0.159919 0.163575
  0.095579 -0.0211431   0.995197 0.955949 0.181598 0.230615
 0.903666  0.316787 -0.288157 0.828211 0.106203 0.550262
 0.790759   0.59113 -0.158954  0.777781 0.0340629  0.627612
  0.738411   0.668497 -0.0886594  0.764124 0.0159725  0.644872
  0.687119   0.725053 -0.0465404  0.768032 0.0240224   0.63996
 0.587592  0.808993 0.0162968   0.8178 0.290559 0.496767
 0.286074  0.955601 0.0706271  0.472184  0.442609 -0.762325
0.482087 0.838802 0.252991 0.0851336 -0.175658 -0.980763
0.672842 0.705617 0.222236  0.125692 -0.138701 -0.982325
0.865931 0.460303 0.195666 0.0840609 -0.184016 -0.979322
 0.996604 0.0594018 0.0570203  0.095034 -0.183034 -0.978503
 0.926316 -0.357272 -0.119565 0.0663717 -0.166384 -0.983825
 0.744416 -0.637773 -0.197712 0.0219745 -0.129381 -0.991351
 0.340724 -0.918523 -0.200557 0.0550806 -0.190206 -0.980198
  0.43359 -0.878252  0.201676   0.372944 0.00299328  -0.927849
0.463261 0.834531  0.29824   0.555438 -0.0561901  -0.829657
0.632143 0.686331 0.359645  0.486114 -0.125747 -0.864801
0.799446 0.453561 0.393914   0.39751 -0.153108 -0.904734
  0.999496 -0.0146459 -0.0281588 0.0256251 -0.266085 -0.963609
 0.913523  -0.38494 -0.131517 0.129146 0.266229 0.955219
 0.754257  -0.63917 -0.150193 0.252554 0.211884 0.944098
 0.344145 -0.931953 -0.114141 0.321802 0.126434 0.938327
 0.223246 -0.930211  0.291322  0.952483 -0.214404  0.216348
 0.247884 -0.909486  0.333749  0.961185 -0.182057  0.207311
 0.253339 -0.881682  0.398066 0.975309 -0.11743 0.187038
 0.241733 -0.830782  0.501364   0.982855 -0.0717405   0.169849
 0.160512 -0.549937  0.819637   0.978155 -0.0815418   0.191218
 0.092504  0.276591 -0.956525   0.95893 -0.121246  0.256424
   0.36647 -0.0291363  -0.929973  0.923454 -0.147605  0.354183
 0.756088 -0.278863 -0.592087  0.851896 -0.119214  0.509962
 0.725335  -0.53114 -0.437926   0.811938 -0.0633942   0.580291
 0.649686 -0.709704 -0.272451 0.764577 0.028475 0.643904
    0.4781   -0.87383 -0.0885481 0.677496 0.223391 0.700782
 0.873198 -0.425313  0.237978 0.0197904 -0.301049 -0.953403
 0.732386 -0.449376  0.511539 0.870061 0.252322 -0.42347
 0.618287 -0.529688  0.580647 0.937233 0.269623 -0.22113
 0.403668 -0.647197  0.646675   0.997049  0.0576778 -0.0506549
 0.293778 -0.693773   0.65755    0.997888 -0.00203851   0.0649228
 0.192193 -0.738618  0.646147   0.984227 -0.0585356   0.166947
0.0615946 -0.784831  0.616641  0.949932 -0.139366  0.279655
0.0857693  0.814192 -0.574226 0.897772 -0.17848 0.402679
 0.233062  0.823134 -0.517815    0.8285 -0.152227  0.538901
 0.373309  0.821382 -0.431245   0.713668 -0.0920287   0.694413
0.755247 0.636217 0.157575  0.183027 0.0515782 -0.981754
 0.42583 0.629807 0.649624  0.844668 0.0025599 -0.535285
 0.212073 -0.609874 -0.763596    0.970128 -0.00247025    0.242581
 0.371964 -0.600067 -0.708211    0.912339 -0.00935636    0.409328
 0.509782 -0.591233 -0.624953   0.833696 -0.0352793   0.551096
 0.615117 -0.589714 -0.523324  0.741458 -0.079463  0.666277
   0.6755 -0.599822 -0.428851  0.649387 -0.140322  0.747399
  0.72639 -0.603877  -0.32816   0.57157 -0.151804  0.806389
 0.869694 -0.490258 0.0572557 0.361104 0.117393 0.925107
 0.411075 -0.886293  0.213313  0.488513 0.0450186 -0.871394
  0.47386 -0.845187  0.247215  0.514191 0.0192319  -0.85746
 0.575816 -0.760945  0.298996  0.507955 0.0445944 -0.860229
 0.712678 -0.608456  0.349101  0.496438 0.0725112 -0.865038
 0.834713 -0.408655  0.369128  0.383955  0.121482 -0.915326
 0.92906 -0.15933 0.333857  0.269416   0.10589 -0.957185
0.962099 0.189383 0.196215   0.20819  0.123746 -0.970229
 0.867077  0.491135 0.0834478 0.0968951 0.017426 0.995142
 0.79841 0.598345 0.067266  0.11437 0.063942 0.991378
 0.730849  0.680108 0.0575493 0.101038 0.093902 0.990441
 0.586491  0.808028 0.0558564 0.545871 0.612859 0.571339
0.0512762  -0.94833 -0.313115   0.959607  -0.280375 -0.0233454
 0.043054 -0.913594 -0.404343    0.99672 -0.0677361  0.0442773
0.0367404 -0.819031 -0.572572    0.997966 -0.00541869   0.0635173
0.0428944 -0.616102 -0.786498    0.998568 -0.00474924   0.0532818
0.0278618 -0.273523 -0.961462   0.998674 0.00115667  0.0514757
0.0495649 -0.131174   0.99012   0.998809 0.00633463  0.0483804
0.0919738 -0.44014 0.893206  0.999648 0.0154028 0.0216119
0.0776418 -0.680439   0.72868    0.999587   0.0286212 -0.00271338
0.0827418 -0.819386   0.56724   0.997854   0.056842 -0.0325107
0.0903901 -0.893111  0.440662   0.992081   0.106479 -0.0666134
0.0676834 -0.951849  0.299002   0.97851  0.179467 -0.101537
0.0752874 -0.962075  0.262191  0.941815  0.307243 -0.136329
  0.994403 -0.0999085 -0.0343657 0.0367564  0.967365 -0.250708
0.0313414 -0.941477 -0.335618  0.992327 -0.122501  0.016778
 0.221687  -0.94174 -0.252944  0.342325 -0.388025  0.855716
 0.286304 -0.942942 -0.169971   0.262358 -0.0181331     0.9648
 0.355046 -0.923237 -0.146885  0.239217 0.0634875  0.968888
 0.450388 -0.880272 -0.149237 0.246801 0.063284 0.966998
 0.715545 -0.667355 -0.206478  0.309553 0.0066759  0.950859
 0.853344 -0.461875 -0.241817   0.352036 -0.0102216   0.935931
 0.942863 -0.201013 -0.265713   0.392413 -0.0109542   0.919724
 0.953439 0.0688311 -0.293626     0.38092 -0.00171407    0.924606
0.894723 0.333932 -0.29658    0.384396 0.000777008    0.923168
 0.724722  0.624437 -0.291303   0.366953 -0.0098654   0.930187
 0.522305   0.82207 -0.226712   0.350916 -0.0280431   0.935987
 0.354213   0.92105 -0.161866  0.310438 -0.101394  0.945171
 0.238299  0.964828 -0.111001  0.211818 -0.319387  0.923648
  0.175813   0.981276 -0.0786641 0.0976932 -0.572813  0.813843
  0.19353 -0.943332 -0.269576  0.481619 -0.371316  0.793831
 0.273165 -0.944061 -0.184741  0.394393 0.0702591  0.916252
 0.342669 -0.923395 -0.172975 0.380828 0.125977 0.916024
  0.43276  -0.88174 -0.187758 0.401053 0.101592 0.910404
 0.682812 -0.682523 -0.260635  0.480543 0.0144244  0.876852
 0.821361 -0.483523 -0.302607   0.530918 -0.0138483    0.84731
 0.910608 -0.218185 -0.350982   0.584051 -0.0236083   0.811373
 0.855529 0.0837211 -0.510941   0.578179 -0.0133999     0.8158
 0.789318  0.334617 -0.514791     0.57429 -0.00755829    0.818617
  0.64794  0.623848 -0.437022    0.558091 -0.00925751    0.829728
 0.469988  0.817079 -0.333907   0.547138 -0.0112907   0.836966
 0.312117  0.918107 -0.244258   0.525213 -0.0456842   0.849743
 0.194739  0.965147 -0.174835  0.448922 -0.229336   0.86364
 0.133377  0.983177 -0.124793   0.27592 -0.589204  0.759412
0.227423 0.952199  0.20395  0.766888  0.265838 -0.584135
 0.28573 0.920908 0.265116   0.74665 0.0851917  -0.65974
0.395241 0.837593 0.377123  0.726861 0.0276872 -0.686226
0.546072 0.631327 0.550664   0.714252 0.00776602  -0.699845
0.654539 0.280229 0.702175   0.713067 0.00671223  -0.701064
  0.699746 -0.0975876   0.707695   0.721405 0.00904103  -0.692454
  0.69063 -0.391238  0.608245  0.715444 0.0106323 -0.698589
 0.606708 -0.599625  0.521876  0.707234 0.0135864 -0.706849
 0.507804 -0.742791  0.436345  0.699762 0.0186192 -0.714133
 0.383313 -0.889636   0.24823   0.53171 0.0173309 -0.846749
 0.270604 -0.930049  0.248561  0.692815 0.0134131 -0.720991
 0.221252 -0.948521  0.226617   0.706441 -0.0527548  -0.705804
0.137629 -0.95644 0.257449  0.709555 -0.441038 -0.549562
 0.329678 -0.898247  0.290628  0.690342 0.0266749 -0.722991
  0.264754   0.963233 -0.0456769  0.238439 0.0806885    0.9678
  0.248441   0.963853 -0.0962537   0.386547 -0.0508358   0.920868
 0.108181  0.960542 -0.256236   0.905694 0.00644367   0.423884
0.00838551  0.958978 -0.283356 0.974228 0.112024  0.19578
 0.758115  0.637447 -0.137562   0.176063 -0.0442839   0.983382
 0.935746   0.33554 -0.108588   0.174741 -0.0379837   0.983881
 0.993727 0.0426242 -0.103394   0.155998 -0.0381352   0.987021
  0.96783  -0.22415 -0.114289  0.149154 -0.034885  0.988198
  0.88096 -0.461796 -0.103214   0.133182 -0.0301953   0.990631
  0.750569  -0.655426 -0.0840442   0.111149 -0.0179766   0.993641
  0.480441   -0.87526 -0.0556515 0.0765817 0.0220628  0.996819
   0.38152  -0.922076 -0.0649487  0.078059 0.0194092   0.99676
  0.314569  -0.945696 -0.0818822  0.0917276 -0.0160184   0.995655
  0.270143  -0.958508 -0.0910236   0.105616 -0.0626776    0.99243
 0.736593  0.490983 -0.465153  0.149831 -0.967362  0.204354
0.0505946  0.949598 -0.309361   0.694253  -0.713816 -0.0920827
 0.125147 -0.954912  0.269223   0.920752 -0.0588827   -0.38568
 0.163821 -0.940338  0.298206  0.913108 0.0241284 -0.407002
 0.265281 -0.864494  0.426937  0.910251 0.0534613 -0.410592
  0.32441 -0.778036  0.537976  0.916878 0.0374092  -0.39741
 0.388372 -0.635269  0.667533  0.923771 0.0260538 -0.382059
 0.452579 -0.413677  0.789964  0.930663 0.0195544 -0.365355
  0.41741 -0.121564   0.90055  0.938044 0.0139356 -0.346235
0.345748 0.274595 0.897249  0.936453 0.0103216  -0.35064
0.282943 0.626759 0.726028     0.9369 0.00819688  -0.349501
  0.2078 0.831957 0.514459  0.941173 0.0185075 -0.337417
0.143681 0.918845 0.367533   0.939044 0.00150453  -0.343794
0.106188 0.950989 0.290419   0.931498 -0.0453155  -0.360914
  0.11442  0.949299 -0.292814   0.736178 0.00554342   0.676766
 0.158284  0.925234 -0.344802   0.732373 -0.0222355    0.68054
 0.235189  0.880267 -0.412088   0.720373 -0.0630814   0.690713
 0.36134 0.781212 -0.50906  0.702045 -0.103145  0.704623
0.554034  0.55087 -0.62417  0.683652 -0.130359  0.718071
 0.772211  0.138936 -0.619989  0.650833 -0.153171  0.743609
 0.929161 -0.269445   -0.2531  0.561383 -0.147478  0.814309
 0.813454 -0.556598 -0.168794  0.496102 -0.102353   0.86221
  0.677559  -0.733864 -0.0485531   0.428731 -0.0281023   0.902995
  0.56503 -0.823319 0.0537352  0.36723 0.059799 0.928206
 0.480177 -0.870211  0.110286 0.313124   0.1478 0.938141
 0.418752 -0.899033  0.128011 0.257493    0.248 0.933913
 0.182237  0.958568 -0.218945  0.702676 0.0191437  0.711252
 0.105321  0.946687 -0.304454 0.837236 0.186154 0.514181
 0.555503 -0.794826 -0.244271 0.0836689 -0.138687 -0.986795
 0.570032 -0.792884 -0.215402 0.000175208 0.0987426  0.995113
 0.581236 -0.792812 -0.183341 0.127728 0.105533 0.986179
 0.590067 -0.793157 -0.150739 0.290629 0.173017 0.941063
  0.59225 -0.794119 -0.136437 0.464891  0.16331 0.870176
 0.585664 -0.799049 -0.136081  0.61782 0.171164 0.767465
 0.559094 -0.813846 -0.158331 0.715169 0.134683 0.685853
  0.52358 -0.828307 -0.199429   0.76121 -0.045249  0.646925
 0.520695 -0.823705  -0.22447 0.733256 -0.13825  0.66575
  0.41529 -0.837416  0.355343  0.692239 0.0274546 -0.721146
 0.529935 -0.814667 -0.235554   0.680326 -0.0740423    0.72916
 0.535043 -0.812314 -0.232108 0.577019 0.028859 0.816221
 0.546629 -0.808085 -0.219533  0.437132 0.0558496  0.897662
 0.484673  0.198114 -0.851964  0.211184 -0.966699  0.144549
  0.22207 -0.958938  0.176418   0.548208 -0.0392292  -0.835422
 0.265334 -0.946617  0.183067  0.531773 0.0231294 -0.846571
 0.314626 -0.925901  0.209088  0.531349 0.0216939 -0.846875
 0.481376 -0.823336  0.300656    0.5312 0.0161888 -0.847092
 0.586038 -0.723306  0.365224   0.535452 0.00855283  -0.844522
 0.692446 -0.578334  0.431333   0.540909 0.00227771  -0.841078
 0.784891 -0.372118  0.495454    0.546805 -0.00156877   -0.837258
 0.819942 -0.081924  0.566554  0.550154 -0.002628 -0.835059
0.783922 0.282806 0.552709   0.541977 -0.0035573  -0.840386
0.647254 0.631753 0.426557   0.545004 0.00118259  -0.838433
0.462979 0.83854 0.28723   0.55832 0.0229704 -0.829307
0.334881 0.921935 0.194654   0.58942  0.107572 -0.800632
0.267358 0.953594 0.138489  0.62619 0.391397 -0.67431
 0.135475 -0.965117  0.224043  0.583169 -0.747529 -0.317985
  0.608127  -0.791211 -0.0645453   0.089837 0.00255547   0.995953
 0.276061 -0.906212  0.320265  0.806613 0.0550387 -0.588512
 0.207188 -0.915722  0.344277  0.908617 0.0541091  -0.41411
  0.57263 -0.801505 -0.172294 0.273454 0.034602 0.961263
 0.148633 -0.924145  0.351944   0.96059  0.108251 -0.256024
0.0825378 -0.932948  0.350423    0.98381   0.154304 -0.0911461
0.00288421  0.943257 -0.332052 0.985554 0.130343 0.108137
 0.104809  0.953221 -0.283523  0.946019 0.0183591   0.32359
 0.167161  0.960078 -0.224292   0.872446 -0.0417888   0.486921
 0.183929  0.962423 -0.199779   0.791246 -0.0315283   0.610685
0.380169 0.884394 0.270774 0.225261 0.477076 0.849504
0.358988 0.898004 0.254394  0.13044 0.338441 0.931903
0.348655 0.907059 0.235976 0.0197329  -0.26859 -0.963052
 0.34334 0.912072 0.224148  0.281337 -0.149995 -0.947814
0.334385 0.911707 0.238697   0.592188 0.00537244  -0.805782
0.323559  0.91112 0.255283  0.840421 0.0398481 -0.540467
0.278709 0.918933 0.279075  0.961133  0.143713 -0.235733
0.224753  0.92781 0.297749    0.991108    0.132898 -0.00659914
0.172105 0.934629 0.311204 0.979672 0.152011 0.130901
0.141949 0.936648  0.32022 0.969698 0.140542 0.199835
0.135079 0.934622 0.328991  0.97065 0.100645 0.218426
0.143712 0.930736 0.336269  0.978975 0.0750574  0.189671
0.156899 0.928319 0.337055   0.994606 0.00948051    0.10329
0.163592  0.93027 0.328383   0.999305 -0.0145353 -0.0343216
0.173348 0.934025 0.312326   0.977968 -0.0420908  -0.204467
0.192326 0.937206 0.290955   0.920218 -0.0612632  -0.386582
0.215801 0.940687 0.261796   0.811735 -0.0958427  -0.576108
0.240907 0.945187 0.220421  0.649913 -0.121222 -0.750279
0.259206  0.94963 0.176113  0.493143 -0.109527 -0.863026
0.271884 0.953311 0.131443  0.318887 -0.121702 -0.939947
 0.536577  0.838729 0.0928396  0.183512 0.0581975 -0.981293
 0.261401 -0.918631 -0.296289 0.300113 0.618677 0.726065
 0.200172 -0.910306 -0.362319 0.473304 0.549709 0.688333
0.0187204 -0.868963  0.494523  0.995022 0.0913955 0.0397246
 0.142638  -0.90286 -0.405583  0.69294 0.420782 0.585472
0.0938418 -0.90007 -0.42552 0.889113 0.254495 0.380409
 0.043093 -0.899003 -0.435818 0.983449 0.128424 0.127809
0.0184603  0.89846 0.438667   0.994546  0.0627228 -0.0833323
0.0747258 0.897999 0.433605  0.971372  0.123951 -0.202666
0.251431 0.898727 0.359265   0.93078  0.201515 -0.305024
0.570142 0.806055 0.158788    0.83161 -0.0181143  -0.555065
 0.59552 0.793447 0.125689   0.744833 -0.0638814  -0.664186
 0.619485  0.780205 0.0867114  0.281199 -0.369136 -0.885814
 0.630098  0.774517 0.0556746 0.410535 0.471352 0.780569
 0.635849  0.770383 0.0469662  0.729702 0.0711755  0.680051
   0.61535   0.788247 0.00340724 0.803465 0.139158  0.57886
  0.579994   0.813109 -0.0496075 0.836242 0.221772 0.501514
 0.510302  0.850856 -0.125044 0.867807 0.284023 0.407728
 0.397886  0.891779 -0.215445 0.891989 0.332367 0.306411
 0.254751  0.919928 -0.298051 0.909147 0.369567 0.192022
 0.116579   0.92809 -0.353636  0.907692  0.417395 0.0433224
0.0112035  0.924855 -0.380154  0.845162  0.514164 -0.146069
0.0717283 -0.922176  0.380061  0.677599  0.650342 -0.343386
 0.171831 -0.919934  0.352413  0.425225  0.767482 -0.479745
 0.357377 -0.886628  0.293551  0.349232  0.298212 -0.888317
 0.275061 -0.891655  0.359573    0.5684  0.383816 -0.727741
 0.186988 -0.895907  0.402972     0.749  0.472552 -0.464428
0.0926546 -0.899237  0.427537   0.89351  0.376656 -0.244479
0.00204937   0.90394 -0.427654   0.900239   0.424261 -0.0978377
 0.125472  0.908969 -0.397531  0.915435  0.398594 0.0556968
  0.27844  0.901297 -0.331866 0.911364 0.362568 0.194832
 0.427542    0.8715 -0.240197 0.896082 0.308573 0.319091
0.540677 0.828445 -0.14611 0.869043 0.226093 0.440053
  0.608588   0.790143 -0.0727652 0.828277 0.143899 0.541525
  0.645241   0.763758 -0.0183835  0.781554 0.0567303  0.621253
 0.674549  0.737181 0.0393446  0.640123 -0.109106  0.760486
 0.673943   0.73677 0.0545083 0.189918 0.218471 0.957184
 0.666468  0.739609 0.0937983  0.417657 -0.221835 -0.881108
0.638599 0.755936 0.144057  0.715878 -0.110409 -0.689441
0.601916 0.775549 0.190317   0.817553 -0.0511556  -0.573577
0.263327 0.871476 0.413748  0.928494   0.23913 -0.284104
0.0803847 0.865297 0.494772  0.970403   0.16809 -0.173389
0.0151071 0.863992  0.50328   0.992661   0.107395 -0.0555873
0.0515664  -0.86427 -0.500379 0.986281 0.111826 0.121425
