 0.386782 -0.849631 -0.358505  0.283818 -0.839384 -0.463553
 0.357426 -0.850798 -0.385212  0.270797 -0.824888 -0.496214
  0.37264 -0.856155 -0.357963  0.236319 -0.824304 -0.514466
0.579658 0.744795  0.33057 0.252908  0.66217 0.705386
0.549482 0.753746 0.360467 0.262062 0.712586 0.650803
0.604189 0.732681 0.313264 0.219788 0.726048 0.651573
 0.65429 0.711737 0.255606 0.221712 0.668343 0.710043
0.631593 0.655377 0.414211   0.16502 -0.671343 -0.722542
0.642932 0.675962 0.360157 0.0838572 -0.782726 -0.616691
0.874703 0.435744 0.212183 0.106876 0.827046 0.551881
 0.90605 0.384371 0.177009 0.109961 0.752717 0.649096
 0.903335 -0.397598  0.160938 0.0845272 -0.799047  0.595297
 0.489575 -0.787251  0.374903 0.0697805 -0.779978  0.621905
 0.452653 -0.790532  0.412509  0.081699  0.801637 -0.592202
 0.760148 -0.583932  0.284954 0.0689951 -0.846659  0.527644
  0.929812   -0.36656 -0.0329181  0.130949 -0.804944  0.578721
 0.684815 -0.684618  0.249653 0.0237632 -0.858896  0.511599
0.603673 -0.72131 0.339544 0.0939673  0.881968 -0.461847
 0.784026 -0.569726  0.246405 0.0629605 -0.819987   0.56891
 0.900473 -0.434774 0.0109435 0.0383815 -0.958482 -0.282559
  0.749215  -0.656192 -0.0899346 0.0506541 0.947854 0.314655
 0.535365 -0.826887 -0.172169 0.0576638 0.935608 0.348299
  0.899693  -0.436491 0.00524478  0.050388 -0.949577 -0.309458
0.101382 -0.74765 0.656309 0.717815 0.458061 -0.52433
0.0406221 -0.726973  0.685464  0.991491 0.0264839 -0.127449
0.0470995 -0.725009  0.687127  0.881049  -0.37732 -0.285275
0.0898179 -0.753994  0.650712  0.869881 -0.156524 -0.467768
 0.726033 -0.601067  0.334059 0.0727981 -0.82988 0.553173
 0.744186 -0.595088  0.303411 0.0810185 -0.836067  0.542612
  0.72238 -0.617007  0.312201 0.0625359 -0.896876  0.437839
 0.757185 -0.575346  0.309271 0.0643618 -0.896399  0.438551
 0.710319 -0.595565  0.375166 0.00930578  0.842433 -0.538721
 0.883905 -0.384576  0.266107 0.0611333 -0.89922 0.433205
 0.984061  0.173292 0.0399343 0.0746303 -0.902331  0.424533
 0.888817 -0.348706  0.297336 0.0257546 -0.865131  0.500884
 0.621859 -0.660561  0.420656 0.0256666  0.777029 -0.628941
 0.938369 -0.251172  0.237438   0.05174 -0.806348  0.589174
 0.953355  0.259886 -0.153539 0.0611059 -0.72714 0.683765
 0.973164 -0.131662 -0.188724 0.0918561 -0.733118  0.673869
 0.402764 -0.857434 -0.320294  0.196221  -0.85202 -0.485345
 0.398539 -0.860636 -0.316973  0.168967 -0.819679 -0.547336
 0.432427 -0.860439 -0.269539 0.00464514 0.781341 0.624088
 0.444413 -0.856243 -0.263333 0.0761148 -0.859864 -0.504817
 0.945212 0.0214014  0.325754 0.0991032 -0.868448  0.485774
   0.98868 -0.0277246   0.147453 0.0912426 -0.86625 0.491208
 0.789114   0.58357 -0.191691  0.101335 -0.897576  0.429055
 0.333278  0.891435 -0.307034  0.194775 -0.863708  0.464835
 0.965383 -0.234109 -0.115016 0.373515 0.650474  0.66134
 0.893664 -0.348102 -0.283179 0.442927 0.656438 0.610659
 0.803691 -0.475572 -0.357648 0.494429 0.738662 0.458168
 0.834503 -0.474252 -0.280517 0.525232 0.687966 0.500834
 0.891464 -0.149798  0.427613  0.102552 -0.835429  0.539946
  0.915273 -0.0364119   0.401184  0.553912 -0.574086  0.602998
  0.925792 -0.0251212   0.377197  0.567843 -0.461527  0.681577
 0.955383 0.0353802  0.293243 0.306776 -0.65895 0.686785
 0.868725 -0.251282  0.426818 0.00567935 -0.845598   0.53379
  0.950472 -0.0484128   0.307016 0.0304396 -0.741741  0.669995
0.959915 0.257888  -0.1098  0.109448 -0.717389  0.688022
 0.956351 -0.178309  0.231513 0.0411702 -0.819301  0.571884
 0.942006 -0.334009 0.0326176  0.11223 0.689859 0.715191
  0.923059  -0.384268 -0.0173292 0.151734 0.749054 0.644899
 0.813293 -0.572445 -0.104222 0.301251 0.688358 0.659857
 0.678196 -0.669625 -0.302742 0.495762 0.480483 0.723434
 0.840723    -0.525 -0.132515  0.424437 -0.847698 -0.318216
 0.868173 -0.484531 -0.107259   0.43914 -0.847776 -0.297375
  0.80299 -0.578639 -0.142774  0.475577 -0.828655 -0.295224
 0.825739 -0.549476 -0.127404  0.469821 -0.826376 -0.310437
0.599274 0.749249 -0.28195  0.664232 -0.335676   0.66792
 0.500125  0.808334 -0.310599  0.555855 -0.363861  0.747416
 0.250972   0.71999 -0.647014 0.789324 0.434385 0.433909
 0.197118  0.665504 -0.719895 0.876888 0.157518 0.454154
0.939242 0.259347 0.224862  0.459194 -0.566911  0.683924
0.945911 0.110094 0.305175  0.398818 -0.443954  0.802402
  0.908269 -0.0447998    0.41598  0.637655 -0.345955  0.688267
 0.927134 0.0264367  0.373797  0.542912 -0.538801  0.644158
 0.560468  0.815172 -0.146187  0.214981 -0.641558  0.736334
 0.498939  0.826132 -0.261852  0.179911 -0.730733   0.65853
 0.528539  0.812061 -0.247392 0.0999729 -0.824544  0.556895
 0.546408  0.828579 -0.122046  0.162699 -0.777409  0.607588
   0.62999   0.774642 -0.0551619  0.344182 -0.407927  0.845656
  0.632276   0.774598 -0.0149807  0.216675 -0.720518  0.658715
  0.715892   0.697628 -0.0285262  0.278426 -0.563808   0.77756
  0.700258   0.712576 -0.0432852   0.417354 -0.0957018   0.903691
  0.603744   0.794279 -0.0679267 0.453096 0.185579 0.871932
  0.657996   0.751247 -0.0516577 0.394383 0.391592 0.831335
  0.640964   0.767563 0.00359432 0.308464 0.651458 0.693147
 0.587133  0.807678 -0.054133 0.416554  0.57897 0.700911
 0.535338   0.82069 -0.199705  0.429881 -0.154153  0.889628
 0.528976  0.824241 -0.202018 0.460846 0.321091 0.827358
 0.488391  0.816263 -0.308526 0.518287 0.104153 0.848841
 0.482293  0.824853 -0.294977  0.410095 -0.404888  0.817244
 0.697973  0.702175 -0.140654  0.112327 0.0140285  0.993572
 0.709986  0.691249 -0.134516  0.362069 0.0974827   0.92704
 0.714177  0.689312 -0.121655  0.193584 -0.453936  0.869751
 0.681032  0.715241 -0.156926 0.0742829 -0.470258  0.879397
 0.835165  0.516119 -0.190054  0.0219799 -0.0590639   0.998012
 0.820271  0.543663 -0.177725 0.0205272   0.52344 -0.851815
 0.855453  0.498363 -0.140838 0.100734  -0.4029 0.909683
 0.846805  0.504719 -0.167867  0.0604766 0.00473875   0.998158
 0.94908 0.224403 0.221112  0.105487 -0.971378  -0.21283
0.972826 0.117747 0.199361 0.0585625 -0.977752 -0.201425
  0.90228 -0.425873 0.0672485 0.00334548 -0.976231 -0.216707
 0.94724 -0.30212 0.107049 0.0143352 -0.972726 -0.231513
 0.698814  0.651988 -0.294228  0.27576 0.590936 0.758123
 0.534212  0.316394 -0.783909 0.299933 0.764712 0.570312
  0.71354  0.593661 -0.372058 0.273009 0.673242 0.687177
 0.698538   0.69506 -0.170105 0.314457 0.485973 0.815442
  0.925621   0.377325 -0.0291893 0.102473 0.530104 0.841718
  0.873501   0.477514 -0.0947444  0.15534 0.310336 0.937849
  0.884076   0.458721 -0.0893562  0.241008 -0.133154  0.961346
  0.93488  0.339117 -0.104881 0.231174 0.141292 0.962598
 0.932275  0.348666 0.0964077 0.00607172 -0.542492 -0.840039
  0.95017  0.229786 -0.210656 0.119252 0.289913 0.949594
 0.905583  0.250213 -0.342511 0.157073 0.440543 0.883883
0.803886 0.57639 0.14677  0.119815 -0.502041 -0.856504
0.427861 0.643455 0.634745  0.132645 -0.674734 -0.726044
0.420868 0.679108   0.6014  0.124277 -0.595314 -0.793824
 0.46242  0.64669 0.606597 0.00872822  -0.71741 -0.696597
0.541925 0.553148 0.632728 0.00193211 0.757922 0.652343
0.0281424 0.912199 0.408779  0.662965 -0.628377 -0.406964
0.0166763 -0.906079  -0.42278  0.639344 -0.690393 -0.338523
0.0879275 -0.901755  -0.42321  0.886436 -0.383996 -0.258417
0.0788275 -0.904389 -0.419364  0.886357 -0.289916 -0.360998
0.778336 0.549325 0.304032  0.770551 -0.586687 -0.249096
0.747844 0.579912 0.323159  0.774213 -0.604668 -0.187005
0.786525 0.53105 0.31522  0.793873 -0.543721 -0.272273
0.861981 0.431387  0.26626  0.739427 -0.564899 -0.366247
0.887669 0.357517 0.290217  0.154336 -0.949034 -0.274799
0.825983 0.470354 0.310674   0.32832 -0.910885  -0.24999
0.954551 0.178228 0.238889 0.0648188  -0.96351 -0.259704
 0.974204 0.0680782  0.215158 0.0385372 -0.962252 -0.269417
0.810604 0.516164 0.276581  0.580452 -0.714178 -0.391185
 0.93079 0.320483 0.175842  0.407607 -0.743189 -0.530591
   0.9828    0.1752 0.0583795 0.0170127 0.812159 0.583188
0.866501 0.438964  0.23767  0.215461 -0.833996 -0.507964
0.263845 0.888948 0.374376  0.474056 -0.786625 -0.395591
0.504579 0.792132 0.343405 0.304559 -0.87839 -0.36834
0.672712 0.679174 0.293566  0.240462 -0.907717 -0.343842
0.491098 0.797666 0.350075  0.355334 -0.857175 -0.372812
0.750101 0.590176 0.298398  0.188663 -0.947788 -0.257108
0.834174 0.472074 0.285131  0.106792  -0.96204 -0.251146
 0.65681 0.691607 0.300468  0.118727 -0.965343 -0.232414
 0.70037 0.650398 0.294049  0.216186 -0.947693 -0.234824
 0.828375 -0.121528  0.546833  0.240633 -0.472356 -0.847924
 0.785647 0.0256653  0.618142  0.390739 -0.228079 -0.891798
 0.826506 0.0508565  0.560626   0.474206 -0.0340569  -0.879755
0.838152 0.134668 0.528551   0.33313 -0.390942 -0.858014
 0.744863 -0.589526  -0.31247 0.0971747 -0.532244 -0.840995
 0.401206 -0.521484 -0.753052 0.167212 0.551322 0.817364
  0.69088 -0.412654 -0.593635 0.0556921 -0.675633 -0.735131
 0.620002 -0.594032 -0.512565 0.0526729 -0.631108 -0.773904
 0.72724  0.61711 0.300493  0.243457 -0.928399 -0.280721
0.706919  0.64522 0.289753  0.276664 -0.926992 -0.253262
0.665694 0.685362 0.295179   0.24555 -0.922604 -0.297502
0.616816 0.720828 0.316142  0.250646 -0.911882 -0.325036
0.915529 0.266027 0.301724  0.804124 0.0120965 -0.594338
0.899454 0.243348 0.362995   0.53923 -0.276491 -0.795477
0.868899 0.126047 0.478672  0.596251  0.145888 -0.789431
0.920243 0.226822 0.318912    0.6874  0.304646 -0.659297
0.879619 0.320678 0.351335  0.764714  0.185635 -0.617051
0.894955 0.253711 0.366996  0.801305  0.444765 -0.400117
 0.891754  0.445932 0.0769343 0.0881911 -0.296649  0.950906
0.844901 0.421194 0.329754  0.352877 0.0919676 -0.931139
0.381134 0.661647 0.645725  0.219882 -0.631085 -0.743897
0.297867 0.751865 0.588196  0.234724 -0.692216 -0.682453
0.287959 0.789687 0.541732  0.279428 -0.583736 -0.762346
0.316677 0.712553 0.626086  0.279246 -0.497479 -0.821302
0.965849 0.121093 0.229068   0.10201   -0.8305 -0.547599
0.946645 0.208989 0.245329  0.131421 -0.834926  -0.53444
0.948826  0.20699 0.238504 0.0959507 -0.803923 -0.586942
0.952926 0.165811 0.253849 0.0689865 -0.795716 -0.601728
  0.798454 -0.0534831   0.599675  0.146131  0.184399 -0.971927
0.846734 0.243393 0.473077  0.155044 0.0486982 -0.986707
0.913344 0.331332 0.236688   0.13602  0.402892 -0.905084
0.895917 0.304313 0.323615  0.137078  0.432489 -0.891158
 0.843518  0.257486 -0.471358 0.836457 -0.25751 0.483764
 0.933947 0.0577001 -0.352724 0.0357006 -0.663107  0.747673
 0.973157  0.134022 -0.187093 0.0357963 -0.622269  0.781985
 0.941999  0.192277 -0.275078  0.287012 -0.330645  0.899054
 0.692001 -0.410752  0.593648  0.288241 -0.192316 -0.938047
 0.713429 -0.469609  0.520084  0.490912 -0.114532 -0.863648
 0.693687 -0.543272  0.472921   0.46808 -0.396247 -0.789867
   0.7113 -0.461713  0.529975  0.286894 -0.437998 -0.851968
  0.759854 -0.0502855   0.648146  0.171983 -0.220208 -0.960172
   0.67657 -0.0760076   0.732445  0.217477  -0.49557 -0.840901
0.576083 0.141861 0.804987  0.197434 -0.587338 -0.784891
0.735268 0.237702 0.634728  0.146335 -0.361393 -0.920859
 0.938272  0.335901 0.0825563 0.0798579 -0.855601 -0.511438
 0.955087  0.290688 0.0575341   0.03038 -0.884858  -0.46487
 0.966214  0.248766 0.0674213 0.00278551 -0.889751 -0.456438
0.872665 0.445908 0.199051  0.154576 -0.851248  -0.50148
 0.497903 -0.774161  0.390853  0.382651   0.51787 -0.765107
 0.282081 -0.777872  0.561557  0.376946  0.568265 -0.731427
 0.443997 -0.754897  0.482697  0.287514  0.658744 -0.695264
 0.684189 -0.675659  0.274538  0.280328   0.60424 -0.745862
 0.758581 -0.641957  0.111565   0.33474  0.472659 -0.815195
 0.836488 -0.546049 0.0460333  0.228927  0.546895 -0.805294
  0.77161 -0.606652  0.191289  0.254675  0.404627 -0.878304
 0.684209 -0.675574  0.274695  0.360202  0.287819 -0.887364
0.705543  -0.6707 0.228845   0.44816  0.350519 -0.822368
 0.663561 -0.678601  0.314939  0.484442 0.0515565 -0.873303
 0.703944 -0.620861  0.344957  0.539283 -0.220556 -0.812729
 0.732934 -0.585628  0.346189  0.567673 0.0836166 -0.818997
  0.53828 -0.799481  0.266617  0.331944  0.618461 -0.712264
 0.504336 -0.814163  0.287723  0.264188   0.62474 -0.734782
 0.365378 -0.834602  0.412236  0.286452  0.677093 -0.677857
 0.361409 -0.841377  0.401831  0.311304  0.721752 -0.618194
 0.672587 -0.714445  0.192859  0.408271  0.628656 -0.661896
0.520192  -0.8057 0.283279  0.330742  0.776412 -0.536465
 0.837939 -0.542348 0.0609672  0.264039   0.84035 -0.473387
 0.868053 -0.491006  0.073466   0.37532  0.707735 -0.598536
 0.772196 -0.625862   0.10959  0.455325  0.428834 -0.780244
 0.769009 -0.579591  0.269629  0.613326  0.402395 -0.679639
 0.592936 -0.557205  0.581335  0.770233 0.0837611 -0.632238
 0.893311 -0.315547 -0.320039   0.25326   0.37485 -0.891822
   0.75709  -0.652854 -0.0243936  0.264518  0.538189 -0.800239
 0.836749 -0.415575 -0.356578  0.209201  0.428153 -0.879159
  0.699344  -0.714639 -0.0144433 0.242518  0.41808 -0.87544
 0.658991 -0.747633 0.0823177  0.237635  0.544478 -0.804409
 0.820856  0.505261 -0.266282  0.127059  0.796546 -0.591076
 0.989865 0.0458893 -0.134393   0.20681  0.796229 -0.568549
 0.700969  0.582959 -0.410855 0.0649629  0.88556 -0.45996
 0.578968  0.691582 -0.431868 0.0811811  0.844545 -0.529295
0.797245  0.51176 -0.32016  0.113262  0.782676 -0.612038
  0.53315  0.698927 -0.476709 0.0409029  0.825509 -0.562905
 0.425656  0.753447 -0.501133 0.0342449 0.793895 -0.60709
 0.658929  0.670317 -0.341304  0.102011  0.770175 -0.629622
 0.852557 -0.324172   0.40995  0.149288  0.728912 -0.668132
  0.59823 -0.476164  0.644506  0.135592  0.742524 -0.655952
  0.52511 -0.556563  0.643815 0.140484 0.689573 -0.71046
 0.604491 -0.531063  0.593769  0.152916  0.646586 -0.747357
 0.942973 -0.124938  0.308534  0.186932  0.718473 -0.669965
 0.708187 -0.397711   0.58335 0.286264 0.602975 -0.74463
 0.562405 -0.543693  0.622976  0.693944  0.312969 -0.648454
 0.804062 -0.472932  0.360304  0.475999  0.595016 -0.647596
0.485361 0.814009 0.319082  0.371265 -0.255973 -0.892547
0.339305 0.772862 0.536243  0.350566 -0.346458 -0.870098
0.318841 0.806254 0.498292  0.361268  -0.43362 -0.825505
0.400459  0.83999 0.366127  0.409973  -0.25122 -0.876819
0.536997 0.805183 0.251624   0.347573 -0.0244602  -0.937334
0.370571  0.85006 0.374265   0.411653 -0.0469966  -0.910128
0.303916 0.850589 0.429109  0.407044  0.195541 -0.892233
0.449998 0.816013 0.362802  0.336985  0.221674 -0.915042
0.658528 0.640461  0.39516  0.282373 -0.011462 -0.959236
0.615772 0.688082 0.383884  0.323977   0.36569 -0.872531
0.771936  0.47193 0.425908  0.280484  0.490561 -0.825032
0.815592 0.393311   0.4244  0.250299  0.224307 -0.941826
0.755791 0.571046 0.320447  0.551455 -0.790261  -0.26718
0.692932 0.642579 0.327014  0.146947 -0.947324 -0.284578
0.833805 0.469247 0.290821    0.1187 -0.958677 -0.258552
0.780602 0.539515 0.315568  0.501198 -0.832956 -0.234491
 0.931135 0.0925395  0.352737  0.259893  0.747853 -0.610878
0.852033 -0.42119 0.310867  0.268191  0.746906 -0.608445
0.0149058 -0.78807 0.615406  0.300406   0.76503 -0.569637
 0.512473 -0.500623  0.697673  0.243249  0.783787 -0.571408
 0.879998 -0.173575  0.442125  0.256542  0.746894 -0.613461
 0.419736 -0.604245  0.677281  0.255254  0.788635 -0.559375
 0.642538  0.721525 -0.257967  0.223614  0.792411 -0.567522
   0.79356   0.600247 -0.0998271  0.241868  0.739099 -0.628676
  0.938228   0.342386 -0.0499995  0.260769  0.689233 -0.675986
  0.67445  0.669161 -0.311995  0.239714  0.663445 -0.708786
 0.614347  0.657853 -0.435669  0.215332  0.570193 -0.792788
 0.903245  0.408503 -0.131427   0.26417  0.613955 -0.743824
 0.829106   0.53433 -0.164542  0.266978  0.701174 -0.661118
 0.838621  0.522666 -0.153411  0.277741  0.634138 -0.721616
 0.705951   0.54318 -0.454521  0.196878  0.669456 -0.716287
 0.681672  0.554666 -0.477148  0.264379  0.718718 -0.643077
0.413796 0.767397 -0.48977   0.28221  0.691642 -0.664822
 0.475469  0.791423 -0.384159  0.250671  0.709374 -0.658751
0.402081 0.785265 -0.47084   0.22541  0.759239 -0.610529
 0.398085  0.760564 -0.512905  0.276137  0.728224 -0.627247
 0.383646  0.750479 -0.538142  0.300905  0.677478 -0.671178
 0.384602  0.750232 -0.537804  0.275444  0.700797 -0.658038
 0.371051  0.738806 -0.562572    0.2949  0.680154 -0.671137
 0.360071  0.740039 -0.568059 0.313779  0.66691 -0.67585
 0.405141  0.768952 -0.494544  0.303485  0.637616 -0.708056
 0.369758  0.763933 -0.528852  0.312332  0.634593 -0.706923
   0.42019   0.905201 -0.0636516  0.307851  0.598654 -0.739487
 0.481119  0.858283 -0.178532  0.303954  0.595104 -0.743951
 0.465583  0.795527 -0.387774  0.291195  0.642827 -0.708504
 0.556806  0.829305 0.0471233  0.300815  0.594978 -0.745327
 0.589911  0.791276 -0.160896  0.276377  0.573336 -0.771299
   0.5122  0.791396 -0.333682  0.262956  0.638071 -0.723685
 0.228268 -0.730915  0.643161 0.0816382 -0.435178  0.896635
 0.210474 -0.699406  0.683032  0.120019 -0.487742  0.864699
 0.228199 -0.736542  0.636735  0.173406 -0.628486  0.758246
 0.237352 -0.745575  0.622722  0.139155 -0.597917  0.789387
 0.244376 -0.755785   0.60751 0.0941157  0.124435 -0.987754
 0.250129 -0.763218  0.595763 0.0313676  0.365962 -0.930101
 0.281514 -0.795736  0.536241  0.496191 -0.373066 -0.783975
 0.257552 -0.768118  0.586226  0.422712  -0.50816 -0.750392
 0.215648 -0.699002   0.68183   0.120768 -0.0767466   -0.98971
  0.18359 -0.628706  0.755661   0.41405 -0.783888  -0.46269
0.0867011 -0.380624  0.920657  0.399111 -0.902609 -0.161267
  0.14568 -0.524237  0.839019  0.217873 -0.467837  -0.85654
 0.203178 -0.678846  0.705611  0.041116 -0.278737  0.959487
 0.160767 -0.569479  0.806131 0.00417986 0.0913037 -0.995814
 0.155479 -0.558025  0.815128 0.0391566 -0.188849  0.981225
0.189842 -0.65121 0.734769 0.0795072 -0.348326  0.933995
 0.346264 -0.795384  0.497459  0.459981 -0.116058 -0.880311
 0.258921 -0.758791  0.597659  0.552797 -0.662202  -0.50587
 0.317637 -0.823073  0.470804  0.621388 -0.447326 -0.643254
 0.394171 -0.842956  0.366134  0.439972  0.155316 -0.884478
 0.511996 -0.808013  0.291504  0.190294  0.379114 -0.905572
  0.52776 -0.827327  0.192353  0.174322  0.533896 -0.827385
  0.77386 -0.585162 -0.242332 0.0242133 -0.695062  0.718542
 0.539364 -0.768857  0.343432 0.127579 0.505184 -0.85353
 0.562481 -0.787655  0.251424 0.137791 0.241176 -0.96065
 0.582568 -0.737374  0.341897 0.169143 0.295406 -0.94028
0.695197 -0.70749 0.127119 0.0767171 0.152187 -0.98537
 0.654454 -0.684234 -0.321736 0.0673273 -0.26717 0.961295
 0.130731 -0.520185  0.843989  0.591753 -0.740138 -0.319411
  0.206232 -0.0688292  -0.976079  0.432346 -0.700076  0.568305
0.00886898 -0.23079 0.972963  0.476223  -0.87871 0.0328819
 0.128742 -0.530816  0.837651  0.496786 -0.850324 -0.173647
  0.32047 -0.671567  0.668055  0.414226  0.553464 -0.722561
 0.384623 -0.713798  0.585285  0.248328  0.501729 -0.828614
0.0654457 -0.70923 0.701933 0.887051 -0.40831 -0.21546
 0.113175 -0.709744   0.69531  0.951582  0.162005 -0.261238
 0.445072 -0.842545 -0.303363  0.254815 -0.857444 -0.447055
 0.424891 -0.842712 -0.330613  0.331088 -0.866392 -0.373827
 0.432967 -0.836305 -0.336353  0.342845 -0.856477 -0.385882
  0.42289 -0.841833 -0.335382  0.308403 -0.851068 -0.424937
 0.599981 -0.657453  0.455827 0.0422668 -0.566366   0.82307
 0.669822 -0.628108  0.396003 0.0152882 -0.552557  0.833335
 0.723264 -0.616729    0.3107 0.0450675 -0.374904  0.925968
 0.632623 -0.650709   0.41996 0.0866239 -0.38713 0.917947
 0.649559 -0.580802  0.490655 0.0166793 -0.553087  0.832957
 0.636755 -0.568007  0.521451 0.00854663  0.324271 -0.945926
  0.63165 -0.642845  0.433323 0.0830803 0.208488 -0.97449
 0.534318 -0.673949  0.510193  0.212111  0.364329 -0.906793
  0.641986  -0.763127 -0.0741052 0.0468072 0.897412 0.438704
 0.520039 -0.834683 -0.181284 0.0616573 0.866748 0.494921
 0.484711 -0.844828 -0.226541 0.212741  0.73373 0.645276
 0.563672 -0.807199 -0.175227  0.20537  0.79155 0.575562
0.133497 0.623897 -0.77002  0.533779 -0.583806  0.611761
 0.231474  0.628973 -0.742168  0.272023 -0.695022  0.665543
 0.207889  0.670641 -0.712055  0.311437 -0.593492  0.742142
 0.133759   0.63913 -0.757378  0.670254 -0.294148  0.681349
0.297712 0.568684 -0.76679  0.377025 -0.553279  0.742789
 0.165865  0.630941 -0.757893  0.458396 -0.363267  0.811117
0.912897 0.22764 0.33882  0.137323 -0.463823   0.87522
  0.989701 -0.0161675   0.142236 0.0983129 -0.467988  0.878249
  0.97243 -0.128037 -0.194901 0.0619164 -0.623572   0.77931
 0.941885 -0.307667  0.134883 0.0135732 -0.450428  0.892709
 0.820512 -0.529339  0.215777 0.0184605  0.383007 -0.923561
 0.772362 -0.564727  0.290758 0.0777029  0.561394 -0.823893
 0.931045 -0.357303 0.0740967 0.00195969 -0.960715 -0.277529
0.967949 0.108466 0.226515  0.159551 -0.944712 -0.286465
  0.986656 -0.0597914    0.15144 0.0399996 -0.951616 -0.304674
 0.951631 -0.296741 0.0796432 0.0677905 0.959278 0.274208
   0.881035   -0.473036 -0.00382665 0.00138811 -0.966126 -0.258066
  0.856039  -0.516557 -0.0191226 0.0329812 -0.972382 -0.231053
 0.934907 -0.354434 0.0180534  0.073215 -0.969046 -0.235774
   0.85232  -0.522164 -0.0299285  0.019052 -0.962921 -0.269109
 0.962186  -0.25709 0.0900178  0.033112 -0.966181 -0.255732
 0.875766 -0.482489 0.0154597   0.02351 -0.958093 -0.285491
 0.968746 -0.221503  0.111662 0.0311673 -0.960326 -0.277132
 0.974572 -0.187303  0.122992 0.0267204 -0.967108 -0.252961
 0.191362 -0.924776 -0.328891 0.927672 0.270782 0.257103
  0.91331 -0.384265  0.134924  0.115837  -0.93017 -0.348377
  0.738559  -0.670015 -0.0749018 0.0340734 -0.909276 -0.414796
 0.485811 -0.834752 -0.259184 0.241278 0.873661 0.422494
  0.944027 -0.0919969    0.31678  0.124517 -0.926103 -0.356131
 0.885845 -0.451931  0.105055  0.041788 -0.890666 -0.452733
 0.886803 -0.445958  0.121253 0.0713464 -0.903307 -0.423021
  0.938582 -0.0258804   0.344084  0.136049 -0.928942 -0.344323
0.193322  0.56917 -0.79917  0.351635 -0.295173  0.888384
0.0216189 -0.562528  0.826495 0.912576  0.35771 0.198113
 0.163978   0.67497 -0.719393 0.716431  0.33619 0.611312
 0.130439  0.600088 -0.789228  0.443541 0.0863502  0.892085
0.0533266  0.493895 -0.867885  0.473961 0.0159539  0.880401
0.0652166  0.527752 -0.846891 0.371982 0.245891  0.89508
0.0594181  0.512155 -0.856835 0.433279 0.775112 0.459859
0.0484805  0.417545 -0.907362 0.601999 0.528962  0.59816
  0.994258 -0.0221409   0.104699 0.0913006 -0.964986   -0.2459
 0.987274 -0.126269 0.0966748 0.0363329 -0.967215 -0.251348
  0.93473 -0.354811 0.0197438 0.0254905 0.952515 0.303422
  0.940374   -0.34012 0.00399953 0.0190092 0.955402 0.294694
0.0936625 -0.936408 -0.338181 0.944548 0.220957 0.242915
 0.297839 -0.911516 -0.283601 0.240934 0.897333  0.36979
 0.326004 -0.909639 -0.257445 0.201149 0.893285  0.40197
 0.151219 -0.934254 -0.322959 0.718482 0.535094 0.444362
0.825775 0.495228 0.269898  0.222282 -0.952221 -0.209441
0.961408 -0.24533 0.124533 0.000546187 0.967188  0.25406
  0.980919 -0.0742763   0.179669 0.0367705 -0.961915 -0.270865
0.852067 0.450412 0.266666  0.161855 -0.955902 -0.245058
  0.987357 -0.0738309   0.140266 0.0644819 -0.971391 -0.228564
 0.972843 -0.198642  0.118816 0.0370005 -0.972177 -0.231309
 0.963945 -0.243978  0.106234 0.0436157 -0.975524 -0.215523
 0.97408 0.129848 0.185223 0.0620165 -0.974929 -0.213697
0.909297 0.366653 0.196835  0.137187  -0.96717 -0.213918
0.823007 0.520079 0.228422  0.141694 -0.970995 -0.192592
0.890177 0.406115 0.206531  0.148756 -0.972756 -0.177815
0.980221 0.119649 0.157643  0.112162  -0.97101 -0.211093
0.0413097  0.53884 0.841395 0.238298 0.845218 0.478353
0.0439852   0.6024 0.796982  0.27171 0.786103 0.555172
0.00451051 -0.583488 -0.812109 0.334725 0.769787 0.543495
0.0299579 -0.487647 -0.872527 0.285455 0.828504 0.481763
0.828717 0.500796 0.249864  0.312348 -0.883308  -0.34958
0.956861 0.259966 0.129753  0.178522  -0.90578 -0.384308
0.794715 0.559525 0.235285   0.23656 -0.916527 -0.322518
0.820104 0.518318 0.242438  0.244284 -0.922212  -0.29975
0.486073 0.715899 -0.50122 0.176441 0.889968 0.420506
0.677876 0.683457 -0.27087 0.137969 0.939166 0.314534
0.563035 0.737809 -0.37233 0.106992 0.979678 0.169659
 0.427558  0.761436 -0.487246 0.142953 0.954573 0.261448
 0.307238  0.309225 -0.899992 0.188134 0.860946 0.472628
0.332136 0.664341 -0.66958 0.158049 0.915453  0.37009
0.244544 0.347032 -0.90541 0.198842 0.882984 0.425206
0.0781985 -0.357883 -0.930486 0.224303 0.816685 0.531709
0.601419 0.720399 0.345427   0.38108 -0.873182 -0.303862
0.791495 0.536653 0.292472  0.195469 -0.937944  -0.28645
0.853013 0.420572 0.309012 0.0839897 -0.951489 -0.295996
 0.64176 0.677053 0.360198  0.208537 -0.927007 -0.311721
 0.963862 -0.244827  -0.10502 0.0349304 0.865792 0.499184
 0.946312 -0.316849 0.0640404 0.0412254 0.801663 0.596352
 0.979271 0.0536498  0.195321 0.0698957 0.808199 0.584747
  0.935747  -0.351481 -0.0289674 0.0665575 0.890305 0.450475
  0.997666 -0.0314615 -0.0606057 0.00573009  -0.93996 -0.341238
  0.942327  -0.333652 -0.0264026 0.0487062 0.945383 0.322302
 0.983414  -0.18021 0.0205257 0.0270422 0.974285  0.22369
  0.997757  0.0575787 -0.0341418 0.0251148 -0.976031 -0.216178
 0.872993   0.45696 -0.170501  0.042248 -0.939353 -0.340341
 0.958713 -0.102309 -0.265333 0.0377057 -0.979756 -0.196615
 0.868747  0.303581 -0.391302 0.0502678 0.982827 0.177551
 0.867327  0.414725 -0.275222 0.0263469 0.956001 0.292176
 0.970458 -0.219428   0.10031 0.174227 0.910684 0.374566
 0.930864 -0.361064 0.0559034 0.124567 0.899496 0.418796
0.936294 0.160115 0.312598 0.054543 0.816711 0.574463
0.961182 0.129859 0.243446 0.142614 0.836471 0.529129
  0.992244 -0.0847397    0.09095 0.128055 0.933203 0.335759
  0.98352 0.0865793  0.158723 0.100091 0.863871 0.493669
  0.999341 -0.0126975  0.0339959 0.0139703 -0.867223 -0.497724
 0.990685  0.108828 0.0818547 0.0412641  -0.94488 -0.324807
 0.968639 -0.244404 0.0447874 0.107372  0.96536 0.237807
0.952168 0.278917 0.124822 0.0748976 -0.971646 -0.224266
0.921207 0.364047 0.137286 0.0758138 -0.983333 -0.165253
 0.932239 -0.361225 0.0211417 0.111239 0.977297 0.180324
    0.87095   -0.491368 -0.00176459 0.163729 0.949614 0.267256
  0.813344  -0.580944 -0.0312465 0.164493 0.966071 0.199121
   0.88404  -0.467092 -0.0173051 0.108458 0.970013 0.217513
   0.86626  -0.499415 -0.0133883 0.116688 0.946957 0.299426
 0.927192  0.364036 0.0882742  0.075433 -0.903315 -0.422293
 0.964753  0.253836 0.0694202  0.123258 -0.924605 -0.360433
  0.994097 -0.0794532 -0.0738865 0.0589315 -0.833901 -0.548758
 0.977402 -0.117523 -0.175709 0.0136824 0.786852 0.616989
0.957362 0.255228 0.135337 0.00589165 -0.888593 -0.458658
 0.969844 -0.201804 -0.136665 0.0179523 -0.778205 -0.627753
  0.97976  0.159439 -0.121039 0.020643 0.777269  0.62883
0.954812 0.262106 0.140126 0.0137826 -0.866531 -0.498933
0.943955 0.288274  0.16077 0.0363535 -0.950195 -0.309529
0.974917 0.146177 0.167838 0.0102501 0.943465 0.331315
 0.987407 -0.119886  0.103223 0.0740635 0.973365 0.216966
0.987011 0.106352 0.120408 0.00329915 -0.976463 -0.215658
0.871457 0.468282 0.145858  0.105347 -0.953491 -0.282411
0.865038  0.47493 0.161715  0.085858 -0.976322 -0.198555
0.802626  0.57313 0.165271  0.133106 -0.975629 -0.174443
0.856587 0.494381 0.147804  0.147332 -0.958367 -0.244592
0.765801 0.550103 0.333069  0.228905 -0.927268 -0.296272
0.696747 0.625285 0.351515  0.302437 -0.895169 -0.327421
0.678498 0.644629 0.352269  0.592125 -0.750368 -0.293829
0.722237 0.602769 0.339179  0.592134 -0.776066 -0.217022
0.750006 0.390625 0.533763  0.209151 -0.684367 -0.698497
0.811368 0.359192 0.461155   0.25365 -0.631253 -0.732926
0.933039  0.20203 0.297694 0.0869664 -0.728571 -0.679427
0.896381 0.212474 0.389045 0.0579715 -0.749613 -0.659333
0.942091  0.20123 0.268275  0.228533 -0.911589 -0.341727
0.790493 0.289307 0.539836  0.234517 -0.870518 -0.432665
0.639357 0.431022 0.636743  0.179944 -0.946059 -0.269429
 0.66315 0.637074 0.392897  0.189509 -0.963333 -0.189938
0.954706 0.206284 0.214436 0.0582009 -0.950923 -0.303906
0.832403 0.489517 0.259768  0.117722  -0.97807 -0.171817
0.973466 0.167958 0.155418 0.0572702 0.978013 0.200526
0.963851 0.181489 0.195071 0.0832786 0.937369 0.338235
  0.68517 -0.174602  0.707147  0.275253 -0.755848 -0.594079
 0.611593 -0.124401  0.781331  0.279719 -0.779554 -0.560404
 0.623623 -0.149324  0.767331  0.244174 -0.713817 -0.656388
 0.706096 -0.209257  0.676491  0.238193 -0.655718 -0.716448
0.717248 -0.68494 0.128111  0.226278 -0.713473  -0.66314
   0.7233 -0.590459  0.358044  0.268628 -0.618875 -0.738128
 0.690172 -0.658524  0.300016  0.380801 -0.601291 -0.702453
  0.69076 -0.707603  0.148828   0.32204 -0.717179 -0.618017
0.368458 0.319705 0.872942  0.888092 -0.098274 -0.449038
0.277496 0.254934 0.926286  0.993337  0.113594 0.0194484
0.064033 0.201068 0.977482 0.824697 0.377711 0.420963
 0.40709 0.357288 0.840609  0.670705 0.0443611 -0.740396
 0.489084 0.0875502  0.867832  0.301095 -0.817169 -0.491504
 0.390781 -0.491174  0.778484   0.27336 -0.884494  -0.37808
 0.539797 -0.257022  0.801598  0.192605 -0.933765  -0.30164
 0.712578 -0.243461  0.657997  0.253522 -0.861395 -0.440143
 0.596265 -0.684866  0.418839  0.435452 -0.555001  -0.70877
 0.666629 -0.708772  0.230753  0.407868 -0.683954 -0.604855
 0.672137 -0.673883   0.30678  0.468763 -0.508895 -0.722002
 0.619203 -0.686215  0.381703  0.476214 -0.295026  -0.82836
 0.449698 -0.615811  0.646954  0.402427 -0.277327 -0.872434
 0.556713 -0.672131   0.48817    0.402173 -0.00201172   -0.915562
  0.56979 -0.644586  0.509753  0.283384  0.225154 -0.932201
 0.434048 -0.614655  0.658636  0.320383 0.0238814 -0.946987
   0.998997 -0.00176788    0.044752  0.356308 -0.775968 -0.520498
0.977501 0.127751 0.167843  0.339055 -0.792044  -0.50765
0.961583 0.168624 0.216621  0.247782 -0.771154 -0.586452
0.985546  0.11928 0.120293  0.179461 -0.740571 -0.647571
 0.86166 0.174537 0.476527  0.220886 -0.414055 -0.883044
0.865496 0.349562  0.35878 0.0695363  -0.40517 -0.911593
0.956393 0.229887 0.180177  0.149098 -0.607734 -0.780019
  0.994758 0.00520232   0.102121 0.0163869 0.576403 0.817001
 0.253923 -0.520796  0.815043  0.372228  0.085572 -0.924188
0.405324 -0.72244 0.560172  0.283359  0.107977 -0.952916
 0.565008 -0.771279  0.293078   0.29166  0.237438 -0.926584
 0.799091 -0.592828  0.100045   0.30181    0.2398 -0.922717
    0.98339 -0.00718599    0.181364 0.0819709 -0.853166 -0.515159
0.958668 0.170708 0.227629  0.119761 -0.849201  -0.51431
0.957479 0.169289 0.233615 0.0536247 -0.873192 -0.484418
  0.985156 -0.0185384   0.170657 0.0473895 -0.874788 -0.482184
 0.853384 -0.454839 -0.254669 0.0546948 0.857763 0.511127
  0.52793 -0.738014 -0.420268  0.365274 -0.812756 -0.453875
0.665316 0.644592 0.376637 0.0497665 -0.869545  -0.49134
 0.881914 -0.424462 -0.205084  0.017225 -0.850775 -0.525248
 0.125563 -0.444562  0.886904  0.468639 -0.144999 -0.871408
0.0903223 -0.38282 0.919397  0.580589 -0.480181 -0.657528
 0.122279 -0.453002  0.883084  0.474371 -0.568597 -0.672063
 0.158439 -0.492902  0.855538  0.393581 -0.210953 -0.894759
0.931482 0.221999 0.288196  0.118196  -0.85603 -0.503231
0.961425 0.130604 0.242082 0.0742158 -0.873903 -0.480402
0.792755 0.465282 0.393766 0.0726447 -0.879419 -0.470473
0.853242 0.386574 0.350055  0.159985 -0.860961 -0.482858
 0.63759  -0.5566 0.532612  0.247182  0.426829 -0.869896
 0.547408 -0.541214  0.638304  0.179229   0.53132 -0.827995
 0.771605 -0.409854  0.486462  0.186606   0.57897 -0.793708
 0.921175 -0.278848  0.271442   0.23675  0.448767 -0.861718
   0.7721 -0.520806  0.364175  0.307591  0.346659 -0.886124
 0.458416  0.317749 -0.829994 0.0307143 -0.401155  0.915495
 0.352702  0.308978 -0.883252  0.527113 -0.294851  0.797003
 0.346433  0.287865 -0.892815 0.567362 -0.52352 0.635632
 0.878679 -0.388442 -0.277553 0.386475 0.839335   0.3823
 0.958812 -0.192782 -0.208602 0.156462 0.898235 0.410723
  0.993368  0.0723888 -0.0893336 0.0069105 0.922032 0.387051
 0.965327 -0.186717 -0.182431 0.063071 0.924346 0.376305
 0.891076  0.215713 -0.399314  0.401788 -0.370146   0.83759
 0.948728 0.0536043 -0.311516 0.0416534  0.471985 -0.880622
 0.907499 -0.341026  0.245248  0.299549  0.571911 -0.763667
  0.993051  0.0685923 -0.0956286 0.0212349 -0.612026  0.790553
0.973137 0.179029 -0.14475 0.0171215  0.374808 -0.926944
 0.973235   0.18623 -0.134659 0.218001  0.59394 -0.77441
0.939483 0.300901  -0.1638  0.129841  0.592866 -0.794765
 0.982463  0.162431 0.0915511  0.378226  0.399689 -0.834981
 0.59186 0.584271 0.555274  0.182973 -0.703506 -0.686731
0.794226 0.422663 0.436534  0.112186 -0.759102 -0.641232
0.734088 0.497235 0.462463  0.186487 -0.761548 -0.620699
0.417349 0.687633 0.594121  0.244214 -0.730368 -0.637905
  0.964158  -0.255882 -0.0701714 0.0974382 -0.808665 -0.580144
  0.993582 -0.0803167  0.0796529 0.0462221 -0.725369 -0.686806
  0.993518 -0.0753001  0.0851585 0.0824791 -0.710522 -0.698825
  0.982511  -0.185836 -0.0116977 0.0549675 -0.800329 -0.597036
 0.710657 0.0535548  0.701498   0.33611  0.409908 -0.847942
0.966878 0.216199 0.135669  0.248191  0.391691 -0.885991
 0.894343  0.394212 -0.211535  0.170874  0.557659 -0.812292
0.911387 0.397186 0.107784  0.265155  0.528527 -0.806444
  0.714298 -0.0737684   0.695943  0.283007  0.403819 -0.869964
 0.95143 0.227418 0.207515  0.273656  0.517125 -0.810983
 0.84302 0.445801 0.300962  0.284922  0.510083 -0.811563
0.0580265 0.319908 -0.94567  0.504719  0.501381 -0.702763
0.0323035 -0.272229   0.96169  0.450574  0.303569 -0.839541
0.0976319  0.272215 -0.957271  0.587803  0.429362 -0.685665
 0.175955  0.251246 -0.951796  0.804995  0.383232 -0.452898
0.0876959 -0.25947 0.961761  0.328236  0.248774 -0.911248
  0.77427 -0.352601 -0.525527 0.0035905 -0.364568  -0.93117
 0.852574 -0.359328 -0.379474   0.06027 -0.317307 -0.946406
 0.611618 -0.338721 -0.714976 0.192306 0.310446 0.930936
 0.719781 -0.316404 -0.617902 0.0390069 0.402292  0.91468
0.0132298  0.115981 -0.993163  0.314648  0.502998 -0.804978
 0.155819  0.326448 -0.932283  0.478619  0.610433 -0.631107
 0.176478  0.402318 -0.898329  0.460013  0.666264 -0.586925
 0.112087 0.0329718  0.993151  0.316557  0.559035 -0.766336
0.0501193 0.0994662 -0.993778  0.290716   0.49074 -0.821376
0.0526083 0.0509965  0.997312  0.304315  0.553854 -0.775009
0.157157 0.234086 -0.95943  0.304893  0.566639 -0.765481
 0.152716  0.210894 -0.965506  0.287475  0.502399 -0.815447
0.0341711 0.0489197 -0.998218 0.269228 0.412487 -0.87027
0.116017 0.118695 -0.98613  0.262417  0.421409 -0.868073
0.0336329 0.184312 0.982292  0.218334  0.303241 -0.927564
0.120033 0.203358 0.971719 0.227223  0.30326 -0.92542
0.00441119 -0.0619401    0.99807  0.296501  0.423662 -0.855919
0.290936 0.304524 0.906985  0.238387  0.300893 -0.923382
0.0395041  0.124144 -0.991477  0.369336  0.388895 -0.844009
 0.139738  0.257073 -0.956236  0.494359  0.546367 -0.676086
 0.147896 -0.544528  0.825601 0.00745954 -0.0175483   0.999818
 0.140027 -0.537944  0.831269  0.0194641 -0.0484168   0.998638
 0.124814 -0.465296  0.876311   0.020643 -0.0868936   0.996004
  0.12863 -0.475363  0.870336 0.00962107 0.0152098 -0.999838
 0.141567 -0.488251  0.861144 0.0404095 -0.121821 -0.991729
 0.120578 -0.446934  0.886404  0.134691 -0.319095 -0.938103
0.0630582 -0.291964  0.954348  0.368451 -0.868015 -0.332859
 0.038687 -0.146638  0.988433  0.337017 -0.902035 -0.269725
 0.165728 -0.616256 -0.769911 0.0513224  -0.1185 0.991627
0.0116313 0.0237359  0.999651  0.339249 -0.933791  0.113778
0.0154991 -0.179627 -0.983613  0.347337 -0.891082  0.292113
0.0977358 -0.428966 -0.898018  0.111051 -0.243907  0.963419
 0.212186 -0.843392 -0.493626  0.0186906 -0.0141551   0.999725
 0.109606 -0.485835 -0.867151   0.0280517 -0.00169793    0.999605
 0.106639 -0.489543 -0.865434 0.00706649 0.0548973  0.998467
 0.210129 -0.890593 -0.403347  0.0134554 0.00204102   0.999907
  0.0581894 -0.00487207   -0.998294  0.605091 -0.586775  0.538107
0.00329542 -0.0638988   0.997951   0.50146 -0.864737 0.0277026
0.0178756  0.127583 -0.991667   0.496711  -0.867013 -0.0395809
0.0792748 0.0330301 -0.996305  0.602825 -0.737303  0.304936
 0.578405 -0.486924 -0.654487 0.143998 0.554254 0.819797
 0.533656 -0.560758 -0.633058 0.255092 0.410236 0.875577
 0.495898 -0.637852 -0.589263 0.267841 0.490715 0.829132
 0.501454 -0.593691 -0.629345 0.172506   0.6249 0.761408
 0.992176 0.0707092  0.102892   0.88764 -0.419824 -0.189324
  0.997426 0.00727098  0.0713326  0.730007 -0.611049 -0.306119
  0.998675 -0.0385378  0.0340949   0.984326  -0.163399 -0.0663574
   0.999287 -0.00507949   0.0373999  0.544989 -0.644587 -0.536185
 0.0719055 -0.0638474   0.995366  0.677088 -0.628912 -0.382129
   0.10314 -0.0410922   0.993818  0.613616 -0.725357 -0.311982
 0.055689 0.0253264  0.998127   0.476527  -0.879115 0.00885918
 0.0309061 -0.0182328   0.999356   0.495184  -0.868035 -0.0361764
  0.85391 -0.305106 -0.421603 0.0563241  0.65071 0.757235
  0.72589 -0.436464 -0.531586 0.144689 0.679022 0.719718
  0.990683 -0.0376617  -0.130877 0.0544433 0.716145 0.695825
  0.990004 -0.0122524  -0.140507 0.00229234 -0.718025 -0.696014
 0.490797 -0.475898 -0.729822  0.213504 -0.186065   0.95906
   0.721182   -0.692733 -0.00413974  0.170728 -0.249795  0.953129
 0.798092 -0.583242 -0.151254  0.154852 -0.212702  0.964769
 0.542495 -0.399335 -0.739074   0.228544 -0.0720381   0.970865
  0.36238 -0.340521 -0.867598    0.14764 -0.0122269   0.988966
 0.359994 -0.333771 -0.871207  0.17279 0.111488 0.978629
 0.364761 -0.317763 -0.875201 0.0971643 0.278816 0.955417
  0.34011 -0.326315 -0.881954   0.1105  0.15416 0.981848
0.930259  0.24864 0.269807 0.033507 0.501913 0.864269
0.974012 0.161449 0.158856 0.0828535 0.686029 0.722842
0.959955 0.196051 0.200128 0.00177755 -0.639597 -0.768708
0.906168 0.270542 0.325064 0.0358118 -0.425403 -0.904295
0.937531 -0.27439 0.213881 0.0254483 -0.130909 -0.991068
 0.769639 -0.442116 -0.460639  0.207543 0.0274131  0.977842
  0.871907  -0.488385 -0.0354669 0.0710136 -0.139697  0.987645
 0.934118 -0.298329  0.196018 0.0255681 -0.158767  0.986985
 0.830457 -0.121065  0.543768  0.0261566 -0.0737349  -0.996935
 0.870657 -0.138635   0.47195 0.0351138 -0.213764  0.976254
  0.770654 -0.0324823   0.636425 0.0585462 -0.272147  0.960473
  0.753223 -0.0332218   0.656926 0.00997809 -0.0325384  -0.999421
 0.466768 -0.774257  -0.42738 0.320416 0.771001 0.550356
 0.315892 -0.825411 -0.467878  0.49827 0.636711 0.588495
 0.290296 -0.828843 -0.478275 0.744822  0.37523 0.551763
 0.668832 -0.678215 -0.304447 0.338815 0.724541 0.600204
 0.544631 -0.768149 -0.336638 0.280738 0.800267 0.529866
 0.717836 -0.658454 -0.226164 0.274783 0.760767 0.587987
 0.579798 -0.736016  -0.34945 0.636171 0.578747 0.510233
 0.584045 -0.747344 -0.316811 0.364592 0.803503 0.470591
  0.639454 -0.0356917      0.768   0.85211 -0.083144 -0.516717
 0.807771 -0.201129  0.554124 0.0549224 0.0250583  0.998176
0.730633 -0.21949 0.646529 0.0360805  0.281129 -0.958992
 0.799458 -0.111187  0.590343  0.210304  0.294589 -0.932196
 0.164397 0.0259176  0.986054 0.989065 0.13237 0.06503
   0.69504 -0.0967571   0.712431  0.944204  0.283164 -0.168217
0.0736822 -0.370193  0.926028  0.935676  0.351597 0.0298285
0.0749215 0.0323642 -0.996664  0.936703    0.3474 0.0435932
  0.18627 -0.238202 -0.953186  0.990632    0.1219 0.0615485
 0.233479 -0.200619 -0.951441  0.932459  0.360804 0.0184306
  0.48247 -0.328873 -0.811828      0.909   0.416572 -0.0136607
  0.53648 -0.333853 -0.775069 0.812643 0.393139 0.430179
 0.273809 -0.273714 -0.922014   0.885261 -0.0161595   0.464814
 0.477692 -0.406044 -0.779063 0.438878 0.33321 0.83448
 0.487017 -0.522652 -0.699749 0.306071 0.193408 0.932155
0.237814 0.161453 0.957798   0.908965  -0.408381 -0.0837154
 0.0404441 0.00750629  -0.999154  0.683713  0.728673 0.0396415
 0.122501 0.0617007 -0.990549  0.834405    0.5509 0.0166457
 0.180253  0.443258 -0.878084    0.85311   0.520087 -0.0413943
0.241414 0.466553 -0.85091 0.736003 0.652316 0.181062
0.103653 0.165412 0.980762  0.53314 0.836971 0.123454
0.0848066  0.322117 -0.942894 0.569162 0.765063 0.301219
   0.10218 -0.0701669   0.992288  0.405939  0.910017 0.0841627
0.283331 0.497989 0.819591   0.40172   0.91268 0.0750759
0.298913 0.596079 0.745212  0.541862  0.834638 0.0988155
0.348405  0.68387 0.641042 0.414135 0.907636 0.068475
0.350625 0.811676 0.467165  0.485962  0.858201 -0.165322
0.288293 0.741632 0.605698 0.564738 0.813563 0.138517
0.172574 0.470364 0.865434  0.684075  0.727972 0.0458099
0.217361 0.739892 0.636643  0.699857   0.71167 0.0610384
 0.264152 -0.505716 -0.821264   0.80991  0.586181 0.0209149
0.0971857 -0.27132 -0.95757  0.824242  0.565735 0.0238646
0.283364 0.868855  0.40595   0.18499 -0.931178 -0.314145
0.124665 0.910762 0.393664 0.435404 -0.86308 -0.25596
0.134506 0.912838 0.385531  0.464663 -0.829693 -0.309349
0.231307 0.894862 0.381732  0.248341 -0.912255 -0.325756
 0.919572 -0.383554 0.0852834 0.0382913 -0.941501 -0.334828
0.660858 0.664838 0.348219  0.117147  -0.93965 -0.321457
0.956595 0.174303 0.233545 0.0732557 -0.951659 -0.298292
  0.823344  -0.567005 -0.0246969 0.0312422 -0.948161  -0.31625
  0.22058  0.900921 -0.373746 0.291295 0.937328 0.191218
 0.188123  0.718336 -0.669778 0.249678 0.962226 0.108546
 0.154137  0.625853 -0.764559  0.232296  0.969342 0.0800917
 0.191462  0.766344 -0.613237 0.260006  0.95382 0.150411
 0.059735  0.635321 -0.769935 0.324151 0.931092 0.167312
0.183244 0.472394 0.862128  0.309314   0.94981 0.0467567
0.322993 0.822556 0.468057  0.377854  0.861965 -0.337997
0.359835 0.791937  0.49331  0.321449  0.938829 -0.123576
 0.218281  0.456373 -0.862599  0.154594  0.987562 0.0286548
 0.209281  0.351663 -0.912433  0.198439  0.977332 0.0737876
 0.238995  0.532353 -0.812084 0.194816 0.960891 0.196811
 0.273269  0.685688 -0.674652 0.145689 0.964811 0.218892
   0.2286  0.581185 -0.781003  0.121347  0.992355 0.0225115
 0.283103  0.857026 -0.430533 0.124189 0.981181 0.147853
 0.26904 0.927045 -0.26116 0.0966651 0.988079 0.119814
 0.135197  0.975219 -0.175129 0.0606343 0.987043 0.148558
5.83055e-05 -0.306584 -0.951844   0.135239   0.986347 -0.0939691
0.0972445 0.953504 0.285262  0.109032  0.983693 -0.143039
0.216023 0.935857 0.278397  0.123634  0.972574 -0.197015
 0.20007 0.871116 0.448474  0.149358  0.968586 -0.198831
0.0664491 0.0688925 -0.995409   0.164634    0.98462 -0.0584758
0.153791 0.699077 0.698312  0.177302  0.963996 -0.198183
0.0839487 0.428629 0.899572  0.205981  0.970927 -0.121956
0.118424 0.389503 -0.91338     0.204043     0.978962 -7.56959e-05
   0.989055    0.147528 -0.00223159 0.0496564 -0.823101  -0.56572
  0.987223   0.159152 0.00788964 0.0583292 -0.771719 -0.633283
  0.996573    0.08157 -0.0137334 0.00333122 -0.773137 -0.634231
   0.997484 -0.00280946  -0.0708418 0.0337512 0.826553 0.561846
 0.764411 -0.585345 -0.270271 0.532254 0.798986  0.27987
 0.556488 -0.766603 -0.320377 0.448501 0.826952 0.339112
 0.984865 -0.127115 -0.117824 0.238775 0.902649 0.358065
 0.926123 -0.329152 -0.184268 0.310408 0.899152 0.308501
 0.841375 -0.485779 -0.236869 0.392666 0.877326 0.275885
 0.887188 -0.410577 -0.210534  0.36979 0.891924 0.260243
 0.846127 -0.480836 -0.229926   0.2245 0.940569 0.254813
  0.87061 -0.435873 -0.228152 0.195995 0.941703  0.27346
 0.875902  -0.41714 -0.242464 0.237027   0.9185 0.316506
 0.935065 -0.292315 -0.200511 0.142008 0.945704 0.292366
 0.915517 -0.337707 -0.218593   0.1232 0.945698 0.300795
   0.9049 -0.357954 -0.230272  0.23983 0.908858  0.34126
 0.962518 -0.225543 -0.150631 0.411601 0.872297 0.263975
 0.960172 -0.241315  -0.14084 0.339656 0.893962 0.292344
  0.995243  0.0965524 -0.0130072 0.142217 0.917719 0.370899
  0.997499  0.0391483 -0.0588449  0.22237 0.906971 0.357709
 0.994088 0.0050509 -0.108462 0.184326 0.935977 0.299953
 0.972354 -0.158975 -0.171041 0.273582 0.898273 0.343888
 0.951306 -0.218927 -0.216997 0.318553 0.888153 0.331223
 0.992611 0.0339893 -0.116482 0.169773 0.935871 0.308744
   0.99334  0.0782483 -0.0845773 0.166533 0.949406 0.266262
     0.975   0.216553 -0.0498033 0.131979 0.952146 0.275679
   0.942648    0.333685 -0.00826654 0.114684 0.962462 0.245999
  0.979193   0.196314 -0.0514056  0.11843 0.965174 0.233266
 0.939096 -0.298748 -0.169848 0.401475 0.886475 0.230172
 0.913966 -0.363025 -0.181323 0.275364 0.937353 0.213411
 0.840516 -0.496444 -0.216972 0.269722  0.93476 0.231245
 0.904483 -0.383599 -0.186449 0.372521 0.894376 0.247629
   0.99456  0.0798904 -0.0668492 0.235673 0.924908 0.298336
 0.983597 -0.123147 -0.131801 0.259367 0.919386 0.295733
 0.876519 -0.424897 -0.226223 0.299116 0.894745 0.331603
 0.976471 -0.153962 -0.150995 0.281246 0.903128 0.324438
 0.904268  0.423577 0.0536786 0.167269 0.933811 0.316258
 0.902022  0.427982 0.0564694  0.21351 0.915183 0.341838
0.795115 0.592626 0.128792 0.224426 0.906402 0.357866
0.830921 0.546122 0.106395 0.180632 0.926375 0.330456
 0.920343  0.389052 0.0400981 0.195462 0.939347  0.28182
0.866749 0.491532 0.084515 0.217475 0.931323 0.292135
 0.858537  0.504908 0.0893463 0.262657 0.929996 0.257136
 0.905137    0.4221 0.0505862 0.225572 0.941452 0.250569
  0.977253   0.210845 -0.0228173 0.208519 0.939407 0.272093
   0.962247    0.272147 -0.00410089 0.211742 0.946109 0.245036
  0.976966   0.211515 -0.0282747 0.201938 0.948862 0.242658
  0.994911  0.0730259 -0.0694187     0.21 0.940283 0.267896
0.744317 0.644763 0.173992 0.294876 0.887692 0.353626
0.788919 0.597969 0.141561 0.230936  0.91081 0.342189
0.745634 0.644928 0.167626 0.269599 0.888892 0.370388
0.692936 0.691164 0.205261   0.3247 0.865372 0.381709
0.703531 0.680776 0.203931 0.378195 0.854066 0.357128
0.639844 0.728523  0.24465 0.387009 0.836714  0.38747
0.606502 0.748284  0.26875 0.431894 0.811767 0.393066
0.680555 0.698687 0.220637 0.434945 0.824206 0.362639
0.784367 0.601044 0.153344 0.434283 0.846299 0.308507
0.778321 0.608257 0.155689 0.508239 0.805744  0.30409
0.819627 0.560145 0.120204 0.542317 0.797632 0.263962
0.830799 0.543646 0.119254 0.479824 0.835787 0.266887
0.800541 0.582286 0.141696 0.337824 0.888521 0.310493
0.842382 0.526115 0.116602 0.398383 0.877171 0.268071
0.847724 0.519026 0.109438 0.325265 0.908288 0.263087
0.829812 0.545247 0.118818 0.266214 0.915324 0.302178
0.0384544 -0.230744 -0.972254   0.246816  -0.968989 -0.0118871
0.0502198 -0.32407 0.944699  0.182028 -0.983236 0.0106162
 0.257461 -0.494567  0.830131  0.188245 -0.962685 -0.194427
0.174357 -0.37229 0.911592  0.250718 -0.957867 -0.140109
  0.966195  -0.249124 -0.0663696 0.967704 0.150425 0.202288
  0.966488  -0.248734 -0.0634975  0.80439 0.428019 0.412015
 0.989043 -0.139501 0.0483096 0.296479 0.645378  0.70398
  0.979781  -0.197878 -0.0295414  0.986394 0.0185609  0.163349
  0.226139 -0.0340228  -0.973501  0.312715 -0.938131  0.148726
0.0926837  0.41272 -0.90613   0.37537  -0.92605 0.0391125
 0.425219 -0.543466 -0.723763  0.330973 -0.916031   0.22659
 0.420792 -0.435338 -0.795874  0.289482 -0.931011  0.222304
 0.268676 -0.241078 -0.932574  0.241716 -0.964197  0.109073
 0.460103 -0.641909 -0.613399   0.24659 -0.949222  0.195376
 0.483138 -0.708535 -0.514349  0.191286 -0.962201  0.193855
 0.322228 -0.646349 -0.691666  0.185196 -0.975751  0.116673
0.975738 0.186341 0.114949 0.0938591 0.547557 0.831488
 0.988695 0.0903987 -0.119622 0.236938 0.603107 0.761658
 0.975772  0.216394 0.0322967 0.0140644 0.742707 0.669469
 0.984312  0.149398 0.0938598 0.0994234 0.719182 0.687672
 0.909375 -0.316258  -0.27022 0.277105 0.866794 0.414585
 0.864406 -0.409383 -0.291904  0.28301 0.862133 0.420276
 0.643413 -0.652886 -0.399699 0.316184 0.830597 0.458406
 0.561473 -0.699232 -0.442518 0.367923 0.834649  0.40987
 0.481509 -0.724649 -0.492984  0.410003 -0.879908  0.240126
 0.477047 -0.718121 -0.506684  0.401165 -0.779034  0.481842
 0.480715 -0.724819 -0.493508  0.462511 -0.684944   0.56297
  0.47756 -0.717467 -0.507127  0.470645 -0.836406  0.280923
 0.483451 -0.719373 -0.498777 0.396333 -0.91039 0.118787
 0.451585 -0.667647 -0.591877  0.452282 -0.880632  0.141168
 0.440864 -0.632534  -0.63682  0.388679 -0.905995  0.167636
 0.464891 -0.559372 -0.686279  0.373678 -0.920506  0.114161
0.00595034 0.0820854 -0.996608   0.588236  -0.805313 -0.0738199
 0.323148 -0.417803 -0.849127   0.47247 -0.827848  0.302391
0.0276882 -0.274808    0.9611  0.512981 -0.826031 -0.233503
 0.152364 -0.394602  0.906132  0.586275 -0.650447 -0.482908
